5.489638251068039709e-01	5.459736988763957966e-01	5.423574273168996207e-01	5.381379186512618151e-01	5.333487953124923520e-01	5.280353239491332173e-01	5.222548790603381841e-01	5.160774025279868393e-01	5.095862806255176958e-01	5.028794412192341134e-01	4.960690522003535774e-01	4.892791581769931897e-01	4.825157016105681707e-01	4.756435178312464762e-01	4.685599998827099100e-01	4.612022260567137932e-01	4.535419105104535054e-01	4.455820046436376747e-01	4.373508435346544765e-01	4.289001737819160276e-01	4.202981155507067856e-01	4.116286045699024676e-01	4.029863919849196452e-01	3.944732641590159572e-01	3.861949134784182780e-01	3.782579732760630864e-01	3.707649082721382605e-01	3.638151196394047160e-01	3.574986319072490648e-01	3.518971761445238156e-01	3.470807762924143502e-01	3.431051560903672915e-01	3.400122642556490105e-01	3.378258870457809260e-01	3.365535192107181328e-01	3.361831691505325903e-01	3.366846171581063807e-01	3.380092184767972130e-01	3.401499378887641867e-01	3.431189529950289807e-01	3.469174345083584354e-01	3.515350538974275074e-01	3.569504866838972279e-01	3.631327363325521085e-01	3.700420751980101897e-01	3.776313027674161882e-01	3.858478792023993242e-01	3.946349100507463570e-01	4.039340128514939399e-01	4.136866847900297350e-01	4.238379625431434872e-01	4.343374179319409167e-01	4.451429709442658589e-01	4.562243745198983347e-01	4.675608375659888183e-01	4.790653279825122235e-01	4.905899748999182908e-01	5.019941560206935272e-01	5.131521496496527224e-01	5.239499972931370708e-01	5.342894903736337131e-01	5.440850465055252494e-01	5.532656802860898004e-01	5.617746504404855790e-01	5.695698906331074785e-01	5.766237632896686893e-01	5.829216946774101737e-01	5.884634386184136590e-01	5.932616486576760551e-01	5.973416373558119163e-01	6.007404134598619549e-01	6.035076283206227687e-01	6.057013252205929454e-01	6.073912326874558731e-01	6.086540488192913045e-01	6.095740758765422207e-01	6.102429467509942196e-01	6.107553469406189484e-01	6.112104150283982351e-01	6.117099920837933968e-01	6.123531072773781281e-01	6.132402559059942915e-01	6.144677537124942912e-01	6.161263145244358919e-01	6.182991355369400477e-01	6.210593480035824232e-01	6.244701704137645137e-01	6.285799739931082764e-01	6.334199412779228933e-01	6.390021842217854520e-01	6.453186610127001899e-01	6.523354538041556960e-01	6.599925280078259293e-01	6.681978459060152753e-01	6.768285483056657448e-01	6.857233284935119189e-01	6.946814803481310419e-01	7.034750431172417384e-01	7.119994951273840300e-01	7.202435887830048733e-01	7.281905839856647189e-01	7.358197361427871730e-01	7.431076747640018576e-01	7.500299133523751216e-01	7.565618341160842419e-01	7.626834583494096487e-01	7.683740414597750590e-01	7.736198193662413569e-01	7.784100040053694158e-01	7.827427791311849514e-01	7.866213614684860467e-01	7.900575237923845862e-01	7.930718137531221901e-01	7.956930505789929775e-01	7.979587627259759897e-01	7.998625823919197630e-01	8.013639613383816140e-01	8.024354589334092847e-01	8.030574247085078277e-01
5.477435731370305927e-01	5.444188446154740735e-01	5.405044652735520039e-01	5.360286443653835553e-01	5.310287571695763154e-01	5.255522654211099987e-01	5.196565655016199825e-01	5.134095402882308257e-01	5.068895666756588758e-01	5.001867297120291544e-01	4.934017124048462044e-01	4.866434857515284373e-01	4.799077132596634709e-01	4.730580643334456048e-01	4.659921070764094231e-01	4.586462400557250740e-01	4.509924974598815139e-01	4.430335106572937387e-01	4.347977323446886588e-01	4.263367778255885421e-01	4.177185593817026033e-01	4.090275543333265484e-01	4.003581746474119685e-01	3.918125951012651487e-01	3.834962673738150918e-01	3.755163280950756799e-01	3.679751216315858553e-01	3.609723008046450965e-01	3.545981527334195471e-01	3.489346382528186186e-01	3.440524158959948342e-01	3.400071984611538478e-01	3.368416130224923810e-01	3.345797193685521309e-01	3.332298219011080032e-01	3.327802025512522910e-01	3.332014622049278563e-01	3.344455250500146248e-01	3.365052136325409893e-01	3.393924101400268567e-01	3.431076835169944439e-01	3.476405192310250691e-01	3.529694396264082545e-01	3.590633278142796869e-01	3.658824123842941978e-01	3.733793396462250502e-01	3.815018651752034029e-01	3.901931601664609395e-01	3.993950719250912162e-01	4.090492289313716334e-01	4.191008374513245927e-01	4.295000437211982658e-01	4.402048279056609559e-01	4.511854079472271684e-01	4.624208860759493889e-01	4.738191753385482263e-01	4.852235178426254070e-01	4.964864482283680158e-01	5.074776783711647532e-01	5.180802021289203640e-01	5.281943849727221973e-01	5.377345725441028401e-01	5.466311170070297099e-01	5.548291945391129465e-01	5.622900922950556657e-01	5.689896711623203540e-01	5.749178433168800062e-01	5.800790126081607490e-01	5.844906467271160366e-01	5.881834030304960992e-01	5.911993451185960646e-01	5.935931518423649411e-01	5.954280307499634217e-01	5.967782728664930980e-01	5.977249746688392262e-01	5.983565359121283400e-01	5.987680906852053120e-01	5.990574865046359720e-01	5.993263893800290232e-01	5.996785222742655463e-01	6.002144789553548465e-01	6.010356081369220282e-01	6.022382365030604090e-01	6.039128481152705730e-01	6.061416992219640365e-01	6.089963893030027053e-01	6.125380580120343144e-01	6.168126695017026595e-01	6.218484959382613031e-01	6.276543121968400918e-01	6.342184002085312633e-01	6.415031221049476429e-01	6.494446795109247716e-01	6.579467457423693322e-01	6.668826102894579444e-01	6.760874214769029278e-01	6.853569172800180187e-01	6.944597889268341318e-01	7.032814488023455546e-01	7.117991610081486620e-01	7.199866665662990606e-01	7.278161309601752782e-01	7.352595664957849442e-01	7.422893137163596444e-01	7.488799889432197210e-01	7.550115478232007904e-01	7.606654777768518949e-01	7.658306625035099513e-01	7.705004497287623044e-01	7.746776404102562186e-01	7.783710094231217624e-01	7.815986098146956440e-01	7.843872913899262445e-01	7.867728976537078367e-01	7.887997187488402506e-01	7.904682579724007230e-01	7.917442035932085176e-01	7.926057825420511627e-01	7.930392307379893202e-01
5.455761215384540286e-01	5.419067056370322488e-01	5.376876592388187825e-01	5.329520139498193920e-01	5.277411974107072412e-01	5.221042455274833571e-01	5.160987119621198715e-01	5.097896488875952592e-01	5.032503472312183090e-01	4.965621622986023942e-01	4.898138908067668496e-01	4.830986946859006093e-01	4.764014394646529649e-01	4.695847947913391329e-01	4.625459280465490930e-01	4.552213417392406702e-01	4.475826652319928045e-01	4.396326666587306309e-01	4.313993829490302967e-01	4.229345825837854123e-01	4.143062489627703515e-01	4.055987773469749147e-01	3.969067492925831275e-01	3.883323286356605286e-01	3.799810436438218475e-01	3.719602060069337468e-01	3.643724555050371627e-01	3.573174559006724316e-01	3.508859429038788114e-01	3.451601289981044429e-01	3.402108915413179502e-01	3.360946545123777995e-01	3.328543403989824290e-01	3.305145669929548946e-01	3.290842732880371879e-01	3.285523211010844546e-01	3.288901866173044586e-01	3.300503410866175158e-01	3.320255742313296676e-01	3.348271008232714951e-01	3.384553038058712437e-01	3.428991106434289837e-01	3.481368795616220924e-01	3.541372201405660336e-01	3.608605141472869815e-01	3.682593313028724724e-01	3.762811755339150466e-01	3.848696775677604154e-01	3.939666518857797284e-01	4.035141317941604022e-01	4.134575205012593901e-01	4.237469533020840062e-01	4.343410996594735951e-01	4.452104182232405338e-01	4.563339893409556480e-01	4.676148380600076981e-01	4.788878254975376114e-01	4.899992477349880970e-01	5.008144228847780655e-01	5.112135088010028028e-01	5.210956614347695970e-01	5.303756334759603952e-01	5.389847488074922532e-01	5.468706180330554778e-01	5.539976219431923532e-01	5.603452156229714598e-01	5.659075892735225821e-01	5.706936600061061071e-01	5.747259394236889918e-01	5.780398771464964058e-01	5.806827229229674092e-01	5.827138986319422287e-01	5.842014150262975214e-01	5.852241529816544219e-01	5.858672517633779497e-01	5.862230226201838867e-01	5.863899148368827419e-01	5.864686589469939593e-01	5.865630818551862413e-01	5.867789744188538492e-01	5.872179315295399382e-01	5.879820459052450543e-01	5.891676715831642985e-01	5.908647619746191237e-01	5.931545995575887575e-01	5.961070715077485538e-01	5.997813042904368563e-01	6.042208659265603243e-01	6.094508009163333018e-01	6.154769190586261152e-01	6.222838916750637051e-01	6.298304046403465639e-01	6.380488082625449531e-01	6.468391871305799734e-01	6.560711325952343076e-01	6.655763793140875295e-01	6.751475579500630930e-01	6.845502633600427655e-01	6.936606406980546646e-01	7.024438092883956708e-01	7.108642757458775163e-01	7.188872906896868198e-01	7.264800303973928397e-01	7.336119031596902706e-01	7.402563217614102076e-01	7.463939202063185618e-01	7.520073894514534008e-01	7.570888518034315506e-01	7.616353968921973916e-01	7.656547492337629768e-01	7.691610449112551429e-01	7.721782452420482556e-01	7.747397428930951069e-01	7.768881211736292647e-01	7.786748039154587353e-01	7.801066622178122190e-01	7.811555989742893225e-01	7.818058150331598233e-01	7.820489731689264090e-01
5.424579089371905916e-01	5.384380204748253629e-01	5.339112817672362343e-01	5.289159926278794721e-01	5.234966702303017749e-01	5.177043787130194419e-01	5.115961103155856060e-01	5.052339900874821543e-01	4.986856075428126589e-01	4.920233977997077179e-01	4.853235577103186538e-01	4.786630486463321899e-01	4.720153804960915966e-01	4.652422081078270710e-01	4.582406209057877100e-01	4.509466427196458516e-01	4.433319220591520060e-01	4.353989699390721779e-01	4.271757357590560411e-01	4.187140208237196126e-01	4.100816662967068371e-01	4.013631823220358830e-01	3.926531668677520903e-01	3.840538001817821456e-01	3.756709497102059259e-01	3.676118067892412689e-01	3.599792737887083649e-01	3.528732332959638729e-01	3.463848149057162651e-01	3.405966578098051922e-01	3.355798581910154899e-01	3.313913542665237189e-01	3.280745608798648072e-01	3.256549820633674597e-01	3.241417756355898239e-01	3.235248647137456413e-01	3.237763710162504527e-01	3.248495973273262116e-01	3.267372567805932881e-01	3.294499186146743752e-01	3.329874077697164703e-01	3.373382797078320894e-01	3.424805862999559802e-01	3.483828714787585712e-01	3.550052434802458690e-01	3.623001626130974429e-01	3.702154500998891540e-01	3.786945178431505576e-01	3.876795195027180063e-01	3.971126743858725550e-01	4.069395060546200926e-01	4.171105655711187521e-01	4.275848232823302175e-01	4.383329621335034232e-01	4.493343414738499297e-01	4.604871749401120429e-01	4.716187386342390320e-01	4.825694217352912707e-01	4.932004455448317781e-01	5.033896369197925491e-01	5.130353457495555602e-01	5.220524661053489446e-01	5.303736722585451480e-01	5.379490728348772510e-01	5.447458153911571843e-01	5.507472473588720385e-01	5.559515360801857708e-01	5.603721803109482646e-01	5.640362979165076673e-01	5.669841800161474765e-01	5.692676990325492570e-01	5.709511894616770000e-01	5.721070932589352731e-01	5.728184544420737989e-01	5.731743948881122819e-01	5.732706449835198725e-01	5.732088597966644716e-01	5.730922699345906146e-01	5.730269835506759390e-01	5.731200661568690569e-01	5.734744091817491896e-01	5.741923405799943536e-01	5.753701979769383357e-01	5.770972017207682825e-01	5.794534964004193212e-01	5.825073662997879431e-01	5.863157660479118016e-01	5.909195994735599866e-01	5.963413836503200782e-01	6.025833451206967784e-01	6.096270095995820482e-01	6.174274249991071883e-01	6.259133091353933365e-01	6.349815298725633994e-01	6.444981117168959717e-01	6.542918680146742050e-01	6.641528144722680382e-01	6.738437778126341593e-01	6.832317125475200204e-01	6.922699652261108394e-01	7.009138737034191768e-01	7.091218393818846666e-01	7.168559618033405467e-01	7.240831546555767106e-01	7.307751676548212005e-01	7.369132912792883960e-01	7.424817920246932212e-01	7.474755275078549532e-01	7.518954824404463499e-01	7.557539766596199637e-01	7.590707043988339509e-01	7.618751632433128362e-01	7.642075513117935204e-01	7.661167540682158883e-01	7.676610445611354860e-01	7.688540774590832960e-01	7.696735107483249072e-01	7.701096504895023065e-01	7.701595863125603181e-01
5.384030741516774299e-01	5.340312141783776223e-01	5.291979620801101625e-01	5.239462061531963144e-01	5.183241781224375844e-01	5.123839897501580865e-01	5.061820163779816584e-01	4.997771371821088104e-01	4.932309469889005205e-01	4.866065289753817025e-01	4.799670859029201986e-01	4.733729477733437108e-01	4.667861594222814658e-01	4.600673349124315692e-01	4.531131615774433019e-01	4.458595292167892299e-01	4.382777854560974129e-01	4.303702224853177549e-01	4.221648881752671501e-01	4.137132610639577823e-01	4.050832589037191567e-01	3.963594356035328725e-01	3.876363344252399812e-01	3.790163325591019428e-01	3.706054506285699213e-01	3.625107158512495542e-01	3.548355886002424464e-01	3.476801155815173461e-01	3.411357436857661574e-01	3.352853637533672604e-01	3.302006409116277075e-01	3.259390494985235365e-01	3.225446280083160699e-01	3.200433290642070716e-01	3.184452951964276690e-01	3.177410950553994362e-01	3.179036600113578914e-01	3.188873213251610661e-01	3.206847046005029123e-01	3.233054928355004742e-01	3.267490295557051172e-01	3.310035419860050121e-01	3.360466224652208789e-01	3.418465851599661876e-01	3.483633194814306777e-01	3.555493842094611945e-01	3.633524364480215652e-01	3.717161835131431169e-01	3.805826258872908596e-01	3.898943001737293912e-01	3.995969815830032190e-01	4.096415877088376289e-01	4.199872858405288567e-01	4.306051801610970564e-01	4.414747066084394045e-01	4.524897898529007256e-01	4.634707336907238351e-01	4.742525414751803670e-01	4.846928580897433836e-01	4.946675982385564940e-01	5.040741080376357486e-01	5.128280256480628463e-01	5.208634007748499384e-01	5.281326791098626128e-01	5.346060505586860412e-01	5.402704157207599556e-01	5.451279026674219486e-01	5.491964468276703260e-01	5.525074085329774176e-01	5.551056687531467082e-01	5.570477608794446311e-01	5.584022646092698938e-01	5.592457850401552077e-01	5.596653925664685225e-01	5.597539564402068679e-01	5.596102870071277824e-01	5.593387035277361807e-01	5.590450515656303354e-01	5.588369054004563852e-01	5.588229279653212922e-01	5.591065905745674636e-01	5.597905713025783658e-01	5.609708193606394167e-01	5.627359369168318803e-01	5.651645805513405563e-01	5.683234863624873068e-01	5.722672894362582641e-01	5.770343005273502746e-01	5.826443998703156879e-01	5.890966355772038199e-01	5.963691908138392117e-01	6.044140116505832827e-01	6.131564131776654492e-01	6.224898058271123302e-01	6.322776100898896967e-01	6.423457836484294248e-01	6.524822524321065575e-01	6.624475564445484466e-01	6.720997112037605525e-01	6.813806624860039296e-01	6.902365575040105838e-01	6.986187952661014888e-01	7.064849346991736168e-01	7.137988478260717251e-01	7.205311902389427425e-01	7.266633618284091822e-01	7.321812921587891321e-01	7.370825960395859244e-01	7.413719344393848720e-01	7.450662006339967558e-01	7.481901218276528764e-01	7.507792789354680307e-01	7.528798221111797639e-01	7.545471577982512112e-01	7.558464957919112104e-01	7.567975303256183617e-01	7.573843090702711001e-01	7.576025211769904510e-01	7.574549019559787544e-01
5.334427696298114085e-01	5.287222287237506313e-01	5.235877095597735176e-01	5.180868598739534203e-01	5.122706152452273232e-01	5.061924447481289668e-01	4.999077078984554556e-01	4.934718252436132713e-01	4.869399345683164126e-01	4.803655467460574702e-01	4.737986605120290684e-01	4.672828616666538371e-01	4.607684085938982266e-01	4.541148649973426044e-01	4.472184860316242294e-01	4.400149372007789439e-01	4.324753938058922276e-01	4.246018580940323361e-01	4.164222849354694556e-01	4.079879832789830574e-01	3.993669748186904900e-01	3.906436657568222448e-01	3.819128510037581581e-01	3.732766561012210160e-01	3.648414408511270191e-01	3.567143418834899382e-01	3.489990383962276455e-01	3.417959162737739809e-01	3.351966740553595225e-01	3.292846730547174250e-01	3.241321035787135818e-01	3.197970198510871054e-01	3.163239636631764440e-01	3.137395331713913049e-01	3.120548446763948824e-01	3.112614077753183550e-01	3.113330291376621428e-01	3.122248934410675192e-01	3.139293855819304535e-01	3.164557837324581402e-01	3.198027311787900451e-01	3.239577439651616930e-01	3.288982393705408014e-01	3.345920392057044057e-01	3.409990438230831034e-01	3.480716588251523413e-01	3.557575850808391560e-01	3.640002891988771139e-01	3.727422640175676039e-01	3.819260899051385438e-01	3.914977390144690483e-01	4.014083587053413615e-01	4.116174882692392734e-01	4.220966367150928988e-01	4.328254259818932193e-01	4.436938090695708992e-01	4.545157794137315577e-01	4.651217833408492486e-01	4.753660725820907929e-01	4.851231962379812801e-01	4.942898635246515959e-01	5.027823377070432809e-01	5.105363786573942075e-01	5.175066321972356942e-01	5.236663196396847963e-01	5.290058065383804742e-01	5.335309040598480435e-01	5.372636451277691405e-01	5.402398130702137369e-01	5.425083015570523193e-01	5.441299384165696473e-01	5.451774199880189409e-01	5.457313120981063248e-01	5.458820249549570791e-01	5.457258305364603990e-01	5.453643182635392606e-01	5.449044332944933400e-01	5.444539222335116335e-01	5.441219540460883186e-01	5.440181818476237385e-01	5.442465446905047077e-01	5.449098738264862574e-01	5.461035987579153650e-01	5.479152302641022709e-01	5.504222870361876740e-01	5.536894564251517714e-01	5.577692317690918777e-01	5.626976699270980209e-01	5.684915547625732923e-01	5.751472100186053593e-01	5.826395747831183414e-01	5.909175862852509287e-01	5.999034851265647728e-01	6.094878479577167107e-01	6.195313927831925804e-01	6.298578124485761931e-01	6.402533698146396501e-01	6.504768652277214125e-01	6.603779113328847039e-01	6.698869765447806879e-01	6.789413347298440815e-01	6.874856341508162050e-01	6.954726633536005842e-01	7.028635371683578104e-01	7.096275654146152467e-01	7.157463668078115626e-01	7.212074245684599871e-01	7.260107605790420138e-01	7.301648214774631995e-01	7.336907676234504239e-01	7.366184467219342169e-01	7.389890416033241261e-01	7.408546325738769589e-01	7.422770814091337321e-01	7.433278562940669465e-01	7.440333037365475244e-01	7.443831389702139090e-01	7.443786092965184453e-01	7.440280519409586679e-01
5.276248154322087380e-01	5.225636682291050494e-01	5.171375868800167641e-01	5.113983131965631479e-01	5.053996774744965448e-01	4.991960342061263489e-01	4.928413868451623769e-01	4.863874730254649226e-01	4.798828137308895903e-01	4.733712983812915498e-01	4.668893189112607867e-01	4.604637634200883234e-01	4.540331011047677445e-01	4.474557468385941261e-01	4.406276248036703480e-01	4.334840941492896227e-01	4.259960402336558927e-01	4.181653011852252133e-01	4.100195419313863443e-01	4.016100823621596150e-01	3.930047745824297167e-01	3.842881615599373357e-01	3.755548959689317678e-01	3.669073440584335599e-01	3.584517671591917476e-01	3.502958161395380854e-01	3.425430717262231695e-01	3.352942918058684496e-01	3.286416344498184205e-01	3.226689095626794623e-01	3.174488326308764763e-01	3.130399283515034048e-01	3.094876356976450360e-01	3.068193296538086479e-01	3.050466954651795404e-01	3.041624681478597436e-01	3.041411983757246751e-01	3.049394056577944268e-01	3.065492123006856029e-01	3.089790868247854205e-01	3.122268190994501036e-01	3.162797610503030876e-01	3.211146734818634552e-01	3.266991703213328879e-01	3.329927361539910535e-01	3.399477984647951145e-01	3.475120034164680960e-01	3.556289270301515870e-01	3.642410402616654830e-01	3.732911313628129446e-01	3.827254022525301558e-01	3.924952957041012436e-01	4.025607230111975521e-01	4.128933682426021434e-01	4.234731706332895418e-01	4.341868172228084966e-01	4.448425190009964170e-01	4.552666439468154302e-01	4.653112145136172328e-01	4.748489184233339322e-01	4.837768396295943352e-01	4.920116824661101562e-01	4.994909252637539376e-01	5.061717087033971163e-01	5.120298580279910583e-01	5.170591983602318420e-01	5.212691717345034892e-01	5.246855536626722216e-01	5.273480964079119149e-01	5.293096447956806561e-01	5.306348232648242513e-01	5.314000563824021750e-01	5.316894057015593145e-01	5.315965966263865861e-01	5.312206118271837196e-01	5.306658170647294837e-01	5.300410311848120504e-01	5.294557842138727377e-01	5.290203775358295335e-01	5.288452410941800741e-01	5.290346777375685150e-01	5.296912424514191864e-01	5.309097383520425817e-01	5.327765602121865562e-01	5.353676894786577600e-01	5.387460109330129976e-01	5.429620211369017291e-01	5.480488638440482729e-01	5.540209979041834654e-01	5.608718996024740777e-01	5.685735374799644193e-01	5.770719821607007693e-01	5.862866349942544852e-01	5.961057257351288774e-01	6.063874723142842482e-01	6.169541069216565310e-01	6.275903606443042904e-01	6.380540162931706005e-01	6.481865571713969487e-01	6.579073025692484533e-01	6.671448608904384514e-01	6.758373594181851240e-01	6.839328272586396862e-01	6.913895235781113424e-01	6.981754561884708776e-01	7.042723751000466992e-01	7.096693171895470664e-01	7.143686238825054380e-01	7.183821554839600054e-01	7.217352519076272177e-01	7.244627281817653808e-01	7.266110189323730095e-01	7.282381346182259518e-01	7.294119546973110157e-01	7.302104464516417925e-01	7.306657990116820489e-01	7.307736139986261703e-01	7.305406093343314033e-01	7.299803740398842500e-01
5.210112579678491951e-01	5.156227481558757209e-01	5.099189326404917066e-01	5.039558561326999975e-01	4.977897736204758283e-01	4.914754905483434966e-01	4.850657246353153318e-01	4.786079594988526531e-01	4.721443914017952603e-01	4.657086496154285160e-01	4.593242523368739616e-01	4.530008223874242845e-01	4.466653680143241045e-01	4.401752646729916729e-01	4.334258648656975632e-01	4.263523417406411276e-01	4.189251539476346875e-01	4.111459645552814623e-01	4.030422579604966971e-01	3.946651954053090883e-01	3.860825688177788040e-01	3.773788008119975945e-01	3.686487519457902762e-01	3.599947556444548225e-01	3.515232264161116671e-01	3.433419026590190937e-01	3.355547371021151970e-01	3.282627173980783852e-01	3.215585158565713586e-01	3.155263034431471936e-01	3.102392551763448192e-01	3.057568695236901335e-01	3.021250559316230322e-01	2.993720428014338131e-01	2.975107626797602323e-01	2.965342569374468940e-01	2.964188924943438330e-01	2.971218890988829298e-01	2.986354565876073175e-01	3.009669037093782307e-01	3.041137577437725836e-01	3.080623421397775674e-01	3.127891332296512394e-01	3.182614823508157498e-01	3.244385786750489942e-01	3.312725652150469990e-01	3.387111318984961095e-01	3.466979422764643326e-01	3.551754454222899038e-01	3.640865608826657773e-01	3.733778735199564935e-01	3.830009464610950598e-01	3.929161177081444412e-01	4.030953995671119894e-01	4.135188352147599056e-01	4.240704639103609619e-01	4.345535293204246807e-01	4.447911006398087563e-01	4.546330695152172585e-01	4.639513523111051807e-01	4.726430028926890126e-01	4.806258224530717271e-01	4.878389667521075279e-01	4.942416741971580318e-01	4.998128469987169753e-01	5.045491670118126271e-01	5.084635869132562158e-01	5.115854200394864826e-01	5.139579296380182294e-01	5.156377014129255310e-01	5.166927269699135294e-01	5.172028418078641332e-01	5.172550137470125486e-01	5.169461151658376608e-01	5.163773614315921856e-01	5.156552798839423302e-01	5.148904892027896807e-01	5.141937297893399705e-01	5.136763636440423442e-01	5.134492775071984871e-01	5.136165540349808545e-01	5.142805656308578888e-01	5.155350520592990593e-01	5.174655601468892696e-01	5.201462010720840912e-01	5.236380515763964238e-01	5.279892585900118895e-01	5.332309554136559493e-01	5.393746016294220791e-01	5.464112035373643872e-01	5.543100764276306380e-01	5.630146869089541761e-01	5.724418241096630444e-01	5.824777702433961979e-01	5.929786917584621841e-01	6.037655899552056837e-01	6.146225941524406933e-01	6.253064860375762146e-01	6.356512651050394425e-01	6.455656048177872419e-01	6.549695575292192595e-01	6.637947733079939683e-01	6.719848719402163884e-01	6.794950162210460221e-01	6.862921417207543673e-01	6.923579984496699424e-01	6.976828377622309452e-01	7.022713315682631574e-01	7.061384912501584843e-01	7.093137706281777977e-01	7.118366238166828897e-01	7.137585402949268021e-01	7.151431980844250580e-01	7.160643630307201857e-01	7.166059982157899633e-01	7.168061353926907797e-01	7.166661093928013981e-01	7.161978680510866502e-01	7.154201208893320452e-01
5.136783344350432934e-01	5.079801910982348900e-01	5.020169739784031693e-01	4.958483468583846365e-01	4.895327474182172844e-01	4.831252230919001467e-01	4.766767812602628607e-01	4.702308504433915792e-01	4.638226231423523971e-01	4.574762384696827722e-01	4.512017322785160101e-01	4.449923483526517787e-01	4.387636312542758099e-01	4.323716544311499987e-01	4.257115351488673927e-01	4.187178611992440347e-01	4.113610037021657728e-01	4.036421661941217431e-01	3.955888002483048949e-01	3.872517279282786662e-01	3.786987739858257429e-01	3.700143282113154686e-01	3.612931855151276239e-01	3.526379090886174184e-01	3.441548368512194478e-01	3.359520792033796610e-01	3.281335560503135795e-01	3.208010756377605577e-01	3.140472665104199201e-01	3.079570217557383027e-01	3.026042603966296318e-01	2.980488747852890752e-01	2.943376715499029239e-01	2.914997981559895313e-01	2.895489749195249707e-01	2.884796655726593051e-01	2.882690904520255337e-01	2.888758916673610511e-01	2.902918632880581717e-01	2.925238107659008380e-01	2.955680140790136190e-01	2.994105559690858342e-01	3.040273000588901153e-01	3.093850943887715421e-01	3.154430187180997103e-01	3.221530409997178102e-01	3.294626542189774687e-01	3.373154672207427929e-01	3.456542791980578011e-01	3.544220315800972188e-01	3.635654405241152132e-01	3.730364411592323459e-01	3.827955137236421224e-01	3.928152504091148578e-01	4.030758694522657559e-01	4.134589155094626767e-01	4.237639450490622850e-01	4.338113138382012623e-01	4.434492613962213725e-01	4.525493047322879936e-01	4.610088232135317043e-01	4.687468243048548144e-01	4.757040557166495320e-01	4.818421519880147219e-01	4.871424487297832395e-01	4.916049049123020209e-01	4.952453217387837170e-01	4.980964094162856903e-01	5.002045092283458061e-01	5.016295856709659384e-01	5.024425660215259271e-01	5.027263342821285397e-01	5.025705422961453950e-01	5.020742243628565360e-01	5.013408695761205625e-01	5.004787240761522371e-01	4.995998046282805194e-01	4.988156551310830578e-01	4.982383891114872121e-01	4.979787965481961010e-01	4.981410045461731051e-01	4.988265888497902534e-01	5.001283653724958311e-01	5.021305471352374150e-01	5.049053719922652617e-01	5.085121260185420100e-01	5.129970944878553540e-01	5.183885468097793048e-01	5.246958110759318838e-01	5.319073606891195904e-01	5.399901366902344346e-01	5.488850837320029541e-01	5.585070707549911750e-01	5.687404187554224722e-01	5.794399073793330412e-01	5.904256626278024944e-01	6.014816168773103877e-01	6.123643111079678514e-01	6.229006056545732806e-01	6.329889329786854146e-01	6.425409425607615521e-01	6.514821792570879566e-01	6.597517003563518889e-01	6.673021631095671369e-01	6.740988290771614544e-01	6.801235248581489756e-01	6.853676068722895920e-01	6.898379243363306212e-01	6.935525412388495736e-01	6.965446204807423936e-01	6.988580145551763767e-01	7.005491802647325628e-01	7.016870693089967137e-01	7.023509181539168145e-01	7.026306856814344970e-01	7.025700712073458254e-01	7.021757051235817393e-01	7.014646338833246952e-01	7.004606875090593210e-01
5.057125888946411019e-01	4.997275996885991445e-01	4.935275571889904400e-01	4.871751616721506917e-01	4.807308419529887078e-01	4.742496940172595266e-01	4.677806963294500187e-01	4.613631361499996864e-01	4.550255154112191058e-01	4.487820276377493256e-01	4.426299046956654326e-01	4.365462629798128047e-01	4.304355307517140350e-01	4.241525998051233759e-01	4.175920239317322813e-01	4.106882268047445383e-01	4.034109996582831426e-01	3.957614420870495531e-01	3.877666117795674494e-01	3.794772870344370608e-01	3.709611722497921926e-01	3.623025478035940550e-01	3.535962195474632863e-01	3.449448600851631186e-01	3.364549714547403481e-01	3.282346859391225835e-01	3.203885689767331235e-01	3.130182209297358575e-01	3.062172550545031458e-01	3.000709254994282649e-01	2.946535889370575645e-01	2.900260349013327743e-01	2.862358796722599408e-01	2.833132773095121126e-01	2.812728015458485498e-01	2.801103822396877607e-01	2.798040056145196242e-01	2.803138893187580583e-01	2.816315648320160681e-01	2.837628528944046158e-01	2.867034645395260539e-01	2.904386290922866265e-01	2.949437506433449374e-01	3.001852395834135878e-01	3.061218693171195437e-01	3.127054546199345419e-01	3.198834118885247046e-01	3.275993280852723677e-01	3.357959586382583961e-01	3.444165075664369913e-01	3.534077347920254186e-01	3.627220787412216430e-01	3.723202384770353257e-01	3.821750468985345983e-01	3.922671051857630209e-01	4.024762019259384704e-01	4.125987534513049781e-01	4.224532117530983566e-01	4.318869027570526598e-01	4.407710480588313273e-01	4.490038886482788372e-01	4.565054878200356936e-01	4.632186228846642551e-01	4.691069607167440703e-01	4.741543903391819414e-01	4.783635102966704578e-01	4.817531340527826389e-01	4.843586770363662586e-01	4.862295088612671456e-01	4.874283187343627644e-01	4.880288000154752726e-01	4.881162191618939605e-01	4.877824908023553063e-01	4.871285506186440184e-01	4.862596369354932335e-01	4.852853632063052203e-01	4.843185172119722770e-01	4.834714053187910143e-01	4.828562873927845778e-01	4.825839188793648593e-01	4.827578312696986229e-01	4.834787974946134215e-01	4.848384271957582037e-01	4.869193609326278871e-01	4.897925075192583466e-01	4.935150499830892046e-01	4.981306007938176572e-01	5.036660866869914210e-01	5.101279072627431521e-01	5.175024786286931411e-01	5.257544773307993857e-01	5.348226679795572425e-01	5.446205190367086058e-01	5.550305790174661080e-01	5.659068288572862704e-01	5.770688912601718012e-01	5.883006220139165299e-01	5.993592131024597647e-01	6.100649546454932626e-01	6.203062733398548856e-01	6.299869409726185365e-01	6.390263643639760849e-01	6.473593884249024821e-01	6.549358038013196603e-01	6.617196028697212018e-01	6.676923496393416535e-01	6.728465384189854515e-01	6.771909987899863426e-01	6.807463987562347718e-01	6.835495665342981031e-01	6.856483372289986500e-01	6.871039817888736634e-01	6.879902770007065849e-01	6.883921268931847415e-01	6.884046764963941412e-01	6.880771504527397608e-01	6.874212121249254626e-01	6.864590941142776348e-01	6.852191670582171712e-01
4.972100786454201060e-01	4.909654659756295669e-01	4.845548247633366112e-01	4.780439412703953450e-01	4.714943941677409711e-01	4.649613163678161798e-01	4.584914926163255466e-01	4.521199595016536232e-01	4.458684299161883580e-01	4.397416250053393094e-01	4.337242762675558860e-01	4.277778650645655545e-01	4.217962504192683260e-01	4.156330057059008376e-01	4.091823947732730060e-01	4.023781355845563734e-01	3.951899263733270606e-01	3.876184236140336470e-01	3.796903895816979846e-01	3.714565041037530824e-01	3.629842855772388854e-01	3.543579596739125370e-01	3.456725729526925472e-01	3.370305135450810674e-01	3.285386007851084367e-01	3.203050873093510886e-01	3.124348558522158648e-01	3.050300210141847490e-01	2.981844367589278622e-01	2.919840137092872268e-01	2.865038306597025297e-01	2.818053773835274556e-01	2.779372111074776552e-01	2.749302955430461548e-01	2.728004736069262193e-01	2.715445285743195436e-01	2.711423285621353818e-01	2.715550321654973676e-01	2.727739958041654478e-01	2.748042743313939273e-01	2.776405940691122343e-01	2.812675497502596378e-01	2.856599984034541295e-01	2.907838690048127339e-01	2.965976286042197874e-01	3.030529825647388931e-01	3.100970628107749816e-01	3.176736094820818979e-01	3.257252576530915711e-01	3.341954082850926988e-01	3.430311604787676938e-01	3.521849526603145764e-01	3.616180637785058605e-01	3.713034799097811312e-01	3.812222180013346562e-01	3.912527865152095607e-01	4.011893478880429464e-01	4.108492381045079078e-01	4.200792524401593120e-01	4.287511923764235067e-01	4.367639006713895378e-01	4.440389614521704775e-01	4.505209299809604939e-01	4.561755929977459045e-01	4.609892438631018052e-01	4.649668280178743118e-01	4.681297820881209493e-01	4.705161378268979955e-01	4.721778387749521744e-01	4.731797364018758278e-01	4.735979379787449428e-01	4.735196287829558925e-01	4.730385752482523798e-01	4.722572420948222272e-01	4.712821559785040360e-01	4.702236210185262166e-01	4.691951635295357748e-01	4.683092512611311542e-01	4.676781987855397893e-01	4.674120175437982416e-01	4.676139053192286399e-01	4.683833398732776820e-01	4.698107232081398799e-01	4.719771463300802550e-01	4.749515144384114929e-01	4.787890835345354756e-01	4.835319172187471093e-01	4.892040848531737929e-01	4.958103363039823575e-01	5.033348460920820111e-01	5.117403124503268064e-01	5.209639453072755222e-01	5.309173862793689080e-01	5.414824535539951578e-01	5.525123758563053045e-01	5.638268114493345529e-01	5.752105379204149882e-01	5.864212396093224644e-01	5.972732764832295871e-01	6.076455618300896644e-01	6.174343289220584063e-01	6.265533279578288095e-01	6.349329726458475820e-01	6.425204605579647454e-01	6.492784054743316879e-01	6.551880212844771734e-01	6.602427104201926689e-01	6.644529983551376029e-01	6.678422665209234887e-01	6.704504176227852330e-01	6.723293678483673874e-01	6.735444473465478366e-01	6.741742908150296643e-01	6.743087586645873932e-01	6.740483899570263171e-01	6.734473875993202130e-01	6.725224479249455323e-01	6.713001909727935868e-01	6.698140859985028950e-01
4.882726638612741588e-01	4.817998941806953539e-01	4.752087129214478400e-01	4.685673387199833506e-01	4.619387876527484837e-01	4.553772927151292782e-01	4.489276610235539700e-01	4.426205116404298701e-01	4.364710200667608064e-01	4.304745964520269585e-01	4.246041776370841347e-01	4.188064305436028367e-01	4.129647379564073129e-01	4.069317487148856327e-01	4.006010592521583313e-01	3.939061358828583326e-01	3.868160367779743813e-01	3.793311995871388453e-01	3.714782005842797719e-01	3.633074241833282869e-01	3.548862574864345976e-01	3.462990355777640361e-01	3.376404111315658985e-01	3.290131552227706924e-01	3.205241965978167795e-01	3.122819410706520471e-01	3.043915339654628127e-01	2.969554509436776457e-01	2.900680930310072791e-01	2.838160273247423149e-01	2.782749015638446566e-01	2.735071245858959332e-01	2.695619100920604860e-01	2.664716441551366333e-01	2.642529574611559573e-01	2.629041431765520853e-01	2.624062291897599764e-01	2.627217089272822492e-01	2.638421138687317424e-01	2.657712734483920203e-01	2.685031043363725889e-01	2.720214572612376092e-01	2.763006421895646270e-01	2.813061504478381325e-01	2.869960552012733035e-01	2.933218648705992471e-01	3.002306019678128157e-01	3.076658096903331363e-01	3.155704404085756809e-01	3.238879497900332138e-01	3.325655025828330724e-01	3.415557669792301798e-01	3.508204158126663752e-01	3.603328399854910380e-01	3.700743956233636389e-01	3.799227158890624567e-01	3.896708581539028438e-01	3.991354909868684020e-01	4.081636777239138203e-01	4.166279036740161423e-01	4.244279416007332717e-01	4.314872028183935893e-01	4.377519275402760313e-01	4.431899266359168310e-01	4.477896844493632345e-01	4.515582854340399188e-01	4.545196197892559242e-01	4.567137433976176664e-01	4.581946895768663208e-01	4.590294570151034481e-01	4.592958269932490012e-01	4.590826314454412027e-01	4.584849169305985628e-01	4.576063024698144299e-01	4.565538863987597118e-01	4.554387004291767238e-01	4.543744951711490287e-01	4.534735222847691705e-01	4.528475738980157206e-01	4.526061225958155076e-01	4.528512939198912068e-01	4.536814058601635891e-01	4.551853942925586094e-01	4.574425230361260364e-01	4.605202475757711467e-01	4.644715918997705528e-01	4.693366665969345153e-01	4.751376085327323473e-01	4.818771119877136022e-01	4.895374931814187036e-01	4.980798019803908683e-01	5.074397996245229026e-01	5.175280401025360577e-01	5.282256058033741875e-01	5.393855319289915240e-01	5.508280292750841189e-01	5.623388245816244302e-01	5.736770792558976151e-01	5.846514337314427934e-01	5.951319771854997054e-01	6.050078584367994949e-01	6.141869577083405307e-01	6.225958373918042410e-01	6.301789159838748766e-01	6.368974833745657538e-01	6.427324142749406555e-01	6.476776800613129881e-01	6.517454692759454549e-01	6.549613625398523764e-01	6.573684245768628420e-01	6.590217773581787952e-01	6.599912041176878574e-01	6.603596066370092110e-01	6.602212874706862022e-01	6.596819390049457610e-01	6.588005017040325928e-01	6.575983656937306465e-01	6.561068776289613602e-01	6.543636097306668731e-01
4.790051320108845156e-01	4.723392822537275659e-01	4.656007361573171743e-01	4.588598459000632346e-01	4.521801746204527350e-01	4.456154848405169955e-01	4.392081082209507437e-01	4.329843092103189961e-01	4.269529775667800786e-01	4.211009072126760122e-01	4.153893223905753551e-01	4.097510001169399896e-01	4.040599246507380893e-01	3.981673552937749494e-01	3.919664398882978240e-01	3.853901523931032025e-01	3.784073102718819581e-01	3.710176837585770770e-01	3.632477397147084730e-01	3.551476656118727204e-01	3.467847391398118928e-01	3.382430546753935063e-01	3.296173852465157927e-01	3.210105566343132710e-01	3.125296069976324920e-01	3.042830406215885075e-01	2.963764623624817185e-01	2.889126980014466994e-01	2.819867831561611027e-01	2.756856131611398197e-01	2.700858861144625478e-01	2.652506235631962306e-01	2.612300020376966958e-01	2.580574360873982842e-01	2.557509131121930568e-01	2.543099516974853813e-01	2.537168926806074865e-01	2.539358706741834948e-01	2.549581108030835597e-01	2.567864796723999810e-01	2.594140843004222874e-01	2.628238782339681889e-01	2.669897119075011482e-01	2.718765077029836608e-01	2.774421856082594506e-01	2.836376632170539147e-01	2.904100724537719280e-01	2.977030221632775975e-01	3.054592458911701836e-01	3.136222430699056041e-01	3.221396708034476863e-01	3.309642738727370803e-01	3.400580752309214638e-01	3.493948159000562215e-01	3.589560598893761778e-01	3.686194075379372048e-01	3.781775879798303097e-01	3.874473026077616122e-01	3.962763915857832053e-01	4.045381881690349735e-01	4.121341446015392429e-01	4.189890726764480822e-01	4.250510835592188896e-01	4.302900122489379253e-01	4.346961374531452260e-01	4.382787701677703374e-01	4.410635676025133067e-01	4.430924948865017088e-01	4.444212484060800494e-01	4.451185008591937442e-01	4.452632917694560044e-01	4.449455854894288631e-01	4.442614789371486239e-01	4.433149248415533261e-01	4.422136397184197043e-01	4.410686115145268094e-01	4.399934923687908728e-01	4.391000634679497194e-01	4.384992854056802281e-01	4.382999141156361245e-01	4.386026308957532427e-01	4.395044571989162874e-01	4.410926877149297098e-01	4.434450490185094518e-01	4.466268821997740890e-01	4.506895946786706464e-01	4.556710759721248616e-01	4.615917205530070677e-01	4.684524666327167242e-01	4.762340029212237535e-01	4.848958673423568455e-01	4.943725061356289974e-01	5.045740852176264779e-01	5.153811594043378186e-01	5.266470637560981549e-01	5.381926275906232515e-01	5.498054144086863548e-01	5.612462213330737804e-01	5.723186421500010557e-01	5.828844452230718121e-01	5.928257769768984220e-01	6.020453096038536067e-01	6.104657213551313300e-01	6.180287446527967798e-01	6.246942470255580915e-01	6.304426217698830825e-01	6.352683873241261603e-01	6.391849904732428422e-01	6.422203313812993031e-01	6.444198599626211887e-01	6.458421118555434104e-01	6.465605684333474157e-01	6.466620156181398515e-01	6.462454935217351037e-01	6.454209178493126586e-01	6.442519775636289525e-01	6.427645049342369798e-01	6.409939714638435149e-01	6.389823258697148178e-01
4.695122023938734790e-01	4.626914520199456038e-01	4.558413162085117043e-01	4.490337144707275407e-01	4.423327843602227749e-01	4.357912079514986159e-01	4.294489043616512292e-01	4.233278983084316494e-01	4.174309907494872518e-01	4.117367368528299654e-01	4.061955782682099003e-01	4.007273321123492327e-01	3.951969944148904235e-01	3.894547030004558708e-01	3.833931899441418989e-01	3.769447617890556712e-01	3.700777545842923733e-01	3.627917635039419886e-01	3.551129490547818568e-01	3.470910610587760181e-01	3.387932459107769190e-01	3.303036855175784381e-01	3.217170763183932469e-01	3.131363425655231403e-01	3.046683911229249309e-01	2.964222842789949741e-01	2.885038019498866735e-01	2.810161200364404421e-01	2.740548431008562047e-01	2.677075885995421900e-01	2.620517111050267856e-01	2.571510855811601770e-01	2.530569389174158745e-01	2.498037579048276724e-01	2.474107334797767399e-01	2.458785877641565532e-01	2.451914778412739304e-01	2.453149169200949942e-01	2.462397581233023436e-01	2.479681240516132534e-01	2.504920932466810357e-01	2.537938971334299243e-01	2.578467734368380393e-01	2.626151631242721884e-01	2.680565485339437282e-01	2.741217378471699218e-01	2.807576660460211482e-01	2.879077012680635317e-01	2.955147083537861818e-01	3.035224712079059861e-01	3.118785375219787492e-01	3.205361444327815557e-01	3.294573805409069522e-01	3.386164901654875603e-01	3.479954530829090231e-01	3.574721322220066888e-01	3.668396068365774032e-01	3.759155849134819261e-01	3.845489897996124951e-01	3.926146208763776069e-01	4.000155168677170803e-01	4.066781307529044320e-01	4.125524172964736835e-01	4.176100605672079524e-01	4.218432266366871075e-01	4.252627254508316579e-01	4.278959319941488260e-01	4.297864252287857401e-01	4.309911160188168444e-01	4.315797438331665514e-01	4.316325189082147462e-01	4.312398432461558850e-01	4.304983334739647671e-01	4.295123744995913984e-01	4.283893272484862735e-01	4.272400976081222046e-01	4.261775444774568156e-01	4.253128636868445112e-01	4.247562335312443094e-01	4.246146976401231621e-01	4.249880182471887369e-01	4.259712364407390872e-01	4.276503503735427092e-01	4.301010734320063755e-01	4.333867718122826340e-01	4.375572883368823995e-01	4.426484500988387971e-01	4.486790377380026063e-01	4.556484385448885122e-01	4.635356371312101542e-01	4.722991880767784534e-01	4.818728831981404226e-01	4.921659539615344525e-01	5.030595499419611150e-01	5.144071222794823761e-01	5.260311006192391892e-01	5.377207373450982875e-01	5.492390903137283065e-01	5.603852715055777090e-01	5.710131059434220280e-01	5.809983175435181613e-01	5.902385674099475121e-01	5.986526387121756665e-01	6.061799935647997906e-01	6.127785246025616583e-01	6.184285375920026695e-01	6.231247150900892651e-01	6.268816745945439139e-01	6.297289574555540170e-01	6.317145957202767725e-01	6.329001666919920055e-01	6.333622699976121373e-01	6.331916194646949325e-01	6.324910736980974280e-01	6.313751327828984738e-01	6.299116105296400647e-01	6.281303437020117064e-01	6.260709724154688294e-01	6.237793295277654915e-01
4.598935551846426439e-01	4.529583758437009666e-01	4.460343374212142886e-01	4.391944918467624026e-01	4.325030696745217340e-01	4.260116752667736928e-01	4.197577440789506120e-01	4.137591158041934447e-01	4.080128308368631274e-01	4.024895611809677920e-01	3.971300600175199924e-01	3.918419832740814290e-01	3.864822085796133511e-01	3.808997686934162963e-01	3.749867720398604165e-01	3.686750765711797051e-01	3.619324493919471308e-01	3.547582559101957189e-01	3.471781533356254612e-01	3.392417820777923754e-01	3.310161900603816321e-01	3.225851981292404136e-01	3.140437215483973810e-01	3.054945642165056152e-01	2.970449940584685700e-01	2.888039639502745781e-01	2.808778227525990934e-01	2.733702277808782721e-01	2.663771337170178222e-01	2.599869895517277207e-01	2.542776969195768011e-01	2.493142249084962236e-01	2.451487194721875540e-01	2.418168271732105135e-01	2.393388768369905661e-01	2.377172755365059287e-01	2.369374933039606335e-01	2.369665970045158332e-01	2.377954397608542381e-01	2.394249187547222435e-01	2.418463466409165319e-01	2.450412108399862010e-01	2.489819613075710536e-01	2.536327764212584213e-01	2.589505258097743456e-01	2.648858207121014829e-01	2.713854866979020231e-01	2.783927824923341232e-01	2.858506823482948600e-01	2.937029264055380784e-01	3.018973249453988372e-01	3.103873120469888836e-01	3.191353373718474606e-01	3.281158202989601924e-01	3.373113642554389502e-01	3.466005324095308149e-01	3.557776622577258907e-01	3.646619607368759564e-01	3.731038829675866197e-01	3.809801321071674129e-01	3.881954427718837253e-01	3.946781060694651289e-01	4.003798492454569979e-01	4.052740303784864162e-01	4.093544020200506339e-01	4.126333058897836970e-01	4.151394135092287829e-01	4.169173760821324737e-01	4.180252150085114193e-01	4.185331785249876702e-01	4.185221989898346151e-01	4.180827987588956463e-01	4.173116601065904319e-01	4.163129928810160307e-01	4.151938078879168770e-01	4.140641958923255705e-01	4.130363374362694406e-01	4.122203287554014883e-01	4.117247561941427825e-01	4.116557388471118184e-01	4.121109272885399299e-01	4.131841426583748866e-01	4.149591729787414085e-01	4.175101013911656223e-01	4.208985544345111851e-01	4.251724930378696365e-01	4.303659718132629708e-01	4.364962013324855672e-01	4.435609331705510083e-01	4.515382629633571954e-01	4.603857168140787492e-01	4.700364519472957636e-01	4.803997627413812976e-01	4.913568040709993534e-01	5.027624208877171652e-01	5.144403405704097709e-01	5.261821581251755475e-01	5.377535309791167117e-01	5.489495030225833849e-01	5.596166001030752346e-01	5.696244655422688652e-01	5.788659080039465499e-01	5.872561821074124833e-01	5.947321185988488912e-01	6.012502971641003890e-01	6.067902522122313735e-01	6.113467866538569995e-01	6.149355355220950115e-01	6.175876704120139005e-01	6.193532912652836009e-01	6.202963715169216297e-01	6.204968697547691425e-01	6.200488150023493183e-01	6.190588405925986359e-01	6.176452322799165229e-01	6.158799177813895076e-01	6.137964648238232179e-01	6.114385180168099287e-01	6.088555864750158086e-01
4.502408889224225885e-01	4.432331226546356029e-01	4.362738807898420279e-01	4.294369838797885142e-01	4.227865475956229524e-01	4.163726937614970480e-01	4.102303577593179318e-01	4.043735443773225913e-01	3.987936538002342934e-01	3.934541969899508773e-01	3.882870100162245652e-01	3.831887309771210837e-01	3.780089178114997561e-01	3.725954216246534778e-01	3.668396724840222722e-01	3.606732110458565899e-01	3.540631917052440292e-01	3.470086188092708634e-01	3.395348322716536527e-01	3.316910676760384535e-01	3.235443510636286657e-01	3.151783938678634489e-01	3.066879909991225839e-01	2.981761214159120987e-01	2.897499873956905780e-01	2.815189575815971734e-01	2.735897528364947817e-01	2.660661398882278039e-01	2.590450800128564213e-01	2.526152847908699761e-01	2.468556843334736017e-01	2.418321449103448539e-01	2.375977971868581951e-01	2.341894037321360089e-01	2.316286938504274473e-01	2.299196063884242081e-01	2.290487711498561396e-01	2.289852900706751682e-01	2.297197536837844722e-01	2.312520744592576338e-01	2.335724709278102218e-01	2.366617521530611223e-01	2.404917772636464279e-01	2.450262213400761779e-01	2.502214725964807540e-01	2.560280766243978601e-01	2.623923556964126158e-01	2.692577654800176190e-01	2.765672145806651328e-01	2.842644431381089465e-01	2.922976115533901242e-01	3.006202852005100401e-01	3.091951982132691290e-01	3.179971200903589090e-01	3.270090262610786391e-01	3.361107490776096274e-01	3.450987376959182562e-01	3.537941575349611845e-01	3.620495753748206313e-01	3.697437185023559336e-01	3.767833018984190763e-01	3.830985095053999201e-01	3.886426441075203631e-01	3.933908253231779839e-01	3.973381952414530294e-01	4.004981787648196900e-01	4.029006673631714830e-01	4.045909468322219094e-01	4.056276622227139583e-01	4.060815595977264603e-01	4.060333087257533280e-01	4.055737656704827554e-01	4.047989835849877260e-01	4.038126088434635941e-01	4.027210559540306822e-01	4.016332668514365212e-01	4.006602294824600508e-01	3.999106450745509855e-01	3.994916830814455588e-01	3.995076682342693086e-01	4.000547302747809453e-01	4.012248193907497207e-01	4.030998198283993195e-01	4.057519437770774062e-01	4.092410179415342242e-01	4.136131815342665718e-01	4.189010175704073191e-01	4.251201501418335194e-01	4.322671054045878480e-01	4.403190708715810087e-01	4.492326754642412268e-01	4.589411010249404010e-01	4.693535817552271228e-01	4.803521464613751402e-01	4.917926730164668414e-01	5.035010194350683088e-01	5.152713045598102948e-01	5.268719814757790720e-01	5.380945202195880350e-01	5.487788497543559796e-01	5.587887147053077763e-01	5.680125362986605531e-01	5.763620159857655301e-01	5.837715282042430509e-01	5.901962521611139323e-01	5.956147102006675853e-01	6.000221100594292922e-01	6.034344314196024017e-01	6.058843940618297008e-01	6.074237609963846207e-01	6.081191096735973911e-01	6.080529042254546601e-01	6.073223247528329871e-01	6.060374839032465211e-01	6.043201686281539642e-01	6.022460376077580779e-01	5.998523785907401429e-01	5.971862170301025508e-01	5.943006234143953792e-01
4.406321708892270150e-01	4.335939770307468133e-01	4.266383676579022510e-01	4.198396502076560122e-01	4.132612127586421935e-01	4.069519681279029077e-01	4.009441109165223782e-01	3.952478711846580395e-01	3.898497146174276784e-01	3.847063686074268518e-01	3.797415727062082302e-01	3.748422163662756268e-01	3.698510739571859718e-01	3.646151541086897763e-01	3.590250662951663396e-01	3.530118697582703691e-01	3.465423578321428222e-01	3.396149330956254042e-01	3.322545853427286699e-01	3.245104516859314003e-01	3.164491752230087496e-01	3.081544455049181064e-01	2.997211121482434848e-01	2.912520009341193483e-01	2.828546642597103977e-01	2.746384707681556181e-01	2.667105570894688915e-01	2.591753901909062963e-01	2.521300188784545426e-01	2.456643363866105878e-01	2.398576885937301895e-01	2.347771234234984905e-01	2.304766687230364042e-01	2.269943781278819239e-01	2.243534251860711259e-01	2.225588428683767106e-01	2.215993398142825088e-01	2.214453527911192932e-01	2.220875160967534789e-01	2.235244511348430108e-01	2.257458512565446163e-01	2.287314751663593881e-01	2.324526568133644944e-01	2.368725023335478408e-01	2.419469622914074414e-01	2.476263634536648162e-01	2.538569186804968680e-01	2.605819961094698045e-01	2.677442417562564403e-01	2.752879209401694616e-01	2.831610190023969298e-01	2.913173857892013552e-01	2.997200617891256913e-01	3.083443197979389150e-01	3.171733321872748368e-01	3.260887694377707646e-01	3.348895315433346731e-01	3.433997052342195877e-01	3.514740564799104794e-01	3.589938509351346951e-01	3.658676198267187818e-01	3.720276478152880206e-01	3.774289335773901022e-01	3.820479206215605106e-01	3.858810639857767621e-01	3.889428608141123345e-01	3.912637277560198079e-01	3.928896508466244719e-01	3.938793954903181405e-01	3.943036202202532814e-01	3.942430057461646098e-01	3.937875547149570221e-01	3.930329482775160588e-01	3.920817824489192804e-01	3.910392682007978737e-01	3.900131548726509800e-01	3.891128329900992999e-01	3.884455923605280581e-01	3.881167971329397282e-01	3.882288573213181770e-01	3.888762395988188403e-01	3.901486621400857002e-01	3.921264336526658623e-01	3.948796765489120952e-01	3.984665435237307873e-01	4.029314122498482420e-01	4.083054433810919814e-01	4.146027784712092989e-01	4.218189753764312044e-01	4.299303134866810927e-01	4.388933013697383090e-01	4.486407871601300612e-01	4.590825439155147292e-01	4.701016781543859713e-01	4.815555352437498327e-01	4.932719821125592929e-01	5.050483112684771569e-01	5.166557797673524410e-01	5.278832502754566836e-01	5.385639596271715179e-01	5.485563842402717549e-01	5.577446468009912284e-01	5.660372593889850812e-01	5.733662112513768783e-01	5.796849747616209525e-01	5.849713227890115386e-01	5.892202442452574296e-01	5.924485175231412049e-01	5.946895407602359462e-01	5.959971065669852353e-01	5.964394554623225764e-01	5.961016446523066392e-01	5.950838357259347067e-01	5.934988164640990771e-01	5.914722415468848249e-01	5.890826362595871224e-01	5.863708934897341463e-01	5.833873757687753070e-01	5.801886000761160567e-01
4.311280565887977145e-01	4.241004757339034148e-01	4.171863610168316527e-01	4.104598940502757753e-01	4.039836642022907598e-01	3.978049485744176161e-01	3.919535182829009257e-01	3.864359490134677277e-01	3.812338594815567472e-01	3.762982438695789966e-01	3.715451500367975557e-01	3.668532177401453431e-01	3.620591380192887954e-01	3.570087706736933542e-01	3.515922218806609711e-01	3.457399709960835565e-01	3.394183299395063247e-01	3.326251761102120841e-01	3.253853133011176402e-01	3.177474190925877462e-01	3.097779943462670160e-01	3.015606410831863649e-01	2.931900666837992109e-01	2.847692501066114712e-01	2.764057437487877356e-01	2.682093976680627323e-01	2.602874579068583660e-01	2.527447853170999292e-01	2.456794134164470844e-01	2.391814323817313126e-01	2.333314572752424043e-01	2.281970174352611069e-01	2.238336068351769459e-01	2.202803951170905217e-01	2.175617374830454420e-01	2.156845269147521504e-01	2.146388287655549565e-01	2.143967428713877410e-01	2.149489691775618161e-01	2.162931881410254109e-01	2.184178020465196990e-01	2.213021319489133221e-01	2.249166802629819217e-01	2.292241811225257941e-01	2.341801474424105578e-01	2.397345777521334431e-01	2.458335754994632749e-01	2.524202899971500491e-01	2.594375860856826810e-01	2.668296853194107032e-01	2.745446168044854418e-01	2.825366242718385656e-01	2.907689451523475799e-01	2.992172242439690155e-01	3.078651372154139754e-01	3.165961817345350204e-01	3.252127699335402577e-01	3.335418442065342104e-01	3.414412340704287008e-01	3.487944371930762899e-01	3.555124794042083258e-01	3.615292756093308468e-01	3.668017501433740168e-01	3.713075719338441716e-01	3.750442026128733564e-01	3.780269927413182351e-01	3.802868185007454160e-01	3.818696221613169794e-01	3.828345083058897758e-01	3.832514461694453423e-01	3.832007991657347401e-01	3.827715524062677011e-01	3.820584679777015991e-01	3.811628180049759229e-01	3.801885223933062496e-01	3.792416345898662611e-01	3.784299586403591653e-01	3.778588149288241715e-01	3.776317622995302159e-01	3.778492632255968098e-01	3.786037274269072328e-01	3.799829802434452342e-01	3.820651858995590677e-01	3.849188256214799986e-01	3.886001702106950395e-01	3.931520983899395305e-01	3.986041186856786323e-01	4.049693387044030479e-01	4.122424519443197433e-01	4.203992618513769930e-01	4.293956588132482599e-01	4.391650653796032588e-01	4.496178454351042464e-01	4.606381175630198110e-01	4.720852403186649449e-01	4.837895013805220135e-01	4.955512484054235833e-01	5.071452000483887002e-01	5.183574025678129304e-01	5.290152570351303041e-01	5.389723441757237055e-01	5.481086686663170227e-01	5.563297474218935612e-01	5.635649054974395389e-01	5.697663023175123520e-01	5.749105455092595740e-01	5.789927224555575513e-01	5.820296006079478390e-01	5.840557816404928770e-01	5.851261085227539294e-01	5.853107474320470294e-01	5.846969821169357706e-01	5.833873484156733014e-01	5.814974569492810108e-01	5.791559767096869926e-01	5.764448302374581834e-01	5.734079903794107036e-01	5.700986151540211599e-01	5.665767883851988707e-01
4.217649967648939291e-01	4.147868703184618977e-01	4.079497436423513146e-01	4.013273497583824123e-01	3.949815504420961521e-01	3.889576752541694105e-01	3.832830007079420231e-01	3.779607544694530974e-01	3.729681568753356879e-01	3.682508190175221019e-01	3.637183443644382286e-01	3.592416043920416135e-01	3.546520711681324101e-01	3.497948386053191805e-01	3.445592579352880769e-01	3.388751739219639236e-01	3.327082638929250158e-01	3.260562083051194993e-01	3.189433623605910650e-01	3.114180206962760544e-01	3.035466075851333545e-01	2.954124733996553176e-01	2.871103255202953619e-01	2.787432085530042736e-01	2.704187843073546649e-01	2.622470341359711132e-01	2.543356854958710445e-01	2.467901244185387033e-01	2.397087126588580697e-01	2.331825251053335213e-01	2.272928114122218513e-01	2.221082169243664417e-01	2.176851765618665058e-01	2.140642166806831226e-01	2.112711586091284566e-01	2.093140988654020873e-01	2.081850065787492765e-01	2.078578197135600714e-01	2.083229099779214388e-01	2.095769293521455023e-01	2.116076236465247451e-01	2.143933073217733076e-01	2.179041326729608818e-01	2.221019366521413685e-01	2.269421446442538570e-01	2.323743612941264747e-01	2.383445149896749604e-01	2.447957331611678167e-01	2.516708587666123265e-01	2.589139820654681734e-01	2.664735479310376132e-01	2.743039970365868108e-01	2.823686324604382514e-01	2.906435585326623272e-01	2.991128885716026198e-01	3.076624616706452042e-01	3.160985084550407831e-01	3.242514287509899451e-01	3.319820937403498151e-01	3.391768567548244517e-01	3.457487458712133477e-01	3.516339736555928464e-01	3.567909196279208106e-01	3.611983796635069299e-01	3.648547891649154828e-01	3.677760566962844369e-01	3.699931678515884781e-01	3.715523165495283053e-01	3.725119290160305852e-01	3.729416353076116519e-01	3.729205953015335973e-01	3.725370172812084713e-01	3.718841534420618267e-01	3.710618207240055644e-01	3.701721884337255131e-01	3.693197673034410711e-01	3.686102059544157927e-01	3.681469428772697339e-01	3.680315237279626062e-01	3.683621023778029802e-01	3.692291628882914956e-01	3.707184955286212391e-01	3.729062841585538135e-01	3.758592703470316487e-01	3.796316679422694351e-01	3.842650098943828918e-01	3.897875793108663833e-01	3.962114006153704127e-01	4.035302591831146923e-01	4.117195700459987395e-01	4.207353658278265574e-01	4.305113535505289413e-01	4.409587395743104765e-01	4.519633082863531159e-01	4.633861059283669315e-01	4.750601171946938761e-01	4.867893489033900956e-01	4.983514661514334421e-01	5.095306064635686250e-01	5.201486984102989819e-01	5.300545381465923134e-01	5.391244602467083480e-01	5.472606705326300558e-01	5.543904507826226125e-01	5.604641140868562577e-01	5.654577565694710595e-01	5.693655684315968024e-01	5.722047274213053480e-01	5.740105682757934424e-01	5.748389241469158417e-01	5.747616899280364455e-01	5.738678671425260225e-01	5.722623002304487727e-01	5.700634007704734607e-01	5.674024691229431205e-01	5.643643053747576799e-01	5.609957489778255590e-01	5.573530488511522218e-01	5.534992648361475309e-01
4.125510277588907426e-01	4.056570722780118432e-01	3.989286796530733814e-01	3.924391124325407043e-01	3.862488319131310854e-01	3.804014827044366331e-01	3.749218138931700861e-01	3.698097598318865198e-01	3.650387551878987447e-01	3.605492467874766294e-01	3.562451595950655303e-01	3.519908003421369780e-01	3.476129582454240974e-01	3.429556659171770772e-01	3.379077494095231171e-01	3.323983860706975491e-01	3.263928265198871581e-01	3.198883135644076670e-01	3.129085896968173408e-01	3.055018510828852452e-01	2.977342703470316487e-01	2.896889790369327478e-01	2.814607501804867185e-01	2.731525846186811379e-01	2.648722754559784121e-01	2.567300447523008233e-01	2.488340138493350950e-01	2.412899626632345473e-01	2.341968875408502182e-01	2.276465198451350647e-01	2.217210501770555398e-01	2.164900867106463733e-01	2.120110928426429120e-01	2.083259078779034490e-01	2.054616223286741816e-01	2.034281708416107448e-01	2.022189449072638034e-01	2.018097643834426969e-01	2.021908040358998682e-01	2.033579280756090402e-01	2.052978319537449858e-01	2.079881080091283141e-01	2.113982082974168730e-01	2.154896634159219060e-01	2.202173735700235779e-01	2.255307026972522000e-01	2.313753822431889595e-01	2.376944083432125376e-01	2.444306896027751974e-01	2.515283819287814637e-01	2.589361052543864838e-01	2.666083877827829518e-01	2.745089483594441160e-01	2.826140663742933712e-01	2.909084022077148002e-01	2.992803333209624328e-01	3.075403355407213546e-01	3.155225615387901028e-01	3.230912961641585479e-01	3.301354748813619122e-01	3.365707954299574922e-01	3.423352428570328176e-01	3.473888378686673106e-01	3.517114704642517187e-01	3.553022872270029109e-01	3.581775358995240577e-01	3.603683990181242858e-01	3.619206328518720373e-01	3.628921056234126197e-01	3.633516924436464568e-01	3.633773824770689109e-01	3.630560382344723558e-01	3.624793473138466227e-01	3.617454417040186221e-01	3.609546963481814474e-01	3.602095212603189101e-01	3.596133986960141637e-01	3.592678524287453712e-01	3.592720538652165452e-01	3.597220889822230205e-01	3.607062973580666965e-01	3.623083028962602037e-01	3.646025060343131563e-01	3.676533397393568769e-01	3.715139237355251645e-01	3.762240841393672541e-01	3.818107035795538229e-01	3.882850843578419253e-01	3.956402240801130121e-01	4.038513955421358381e-01	4.128747681332247677e-01	4.226443771125347748e-01	4.330728347897145891e-01	4.440472713245658953e-01	4.554311509730176732e-01	4.670600569741044650e-01	4.787413414302599812e-01	4.902564763064366504e-01	5.013877620246643962e-01	5.119517895394998241e-01	5.217930793741505369e-01	5.307841930843655298e-01	5.388245006592754516e-01	5.458390340845035160e-01	5.517766157061599896e-01	5.566119493754915215e-01	5.603391213518401637e-01	5.629752054414904894e-01	5.645560396787161483e-01	5.651384528682856789e-01	5.647956692643214538e-01	5.636184792830668533e-01	5.617138171415807513e-01	5.592022006073876783e-01	5.562177036453763712e-01	5.528477795933429695e-01	5.491421235670476131e-01	5.451597827078328296e-01	5.409665877263436506e-01
4.034587581744198403e-01	3.966777162987025207e-01	3.900845902339009630e-01	3.837514280507505759e-01	3.777377172755365109e-01	3.720849799171336847e-01	3.668156126954805751e-01	3.619265739456319908e-01	3.573872938407641753e-01	3.531340396531574277e-01	3.490653970217417190e-01	3.450397425254694839e-01	3.408798171219740158e-01	3.364287890654815150e-01	3.315746528738175436e-01	3.262461482455851769e-01	3.204080006204121367e-01	3.140567635074432151e-01	3.072159496331796080e-01	2.999335035148517070e-01	2.922752914221372067e-01	2.843243136078225097e-01	2.761752336873977143e-01	2.679310525018503975e-01	2.596998476279039902e-01	2.515919286554073042e-01	2.437159421056059039e-01	2.361778429545061397e-01	2.290775247307054174e-01	2.225072658591972508e-01	2.165501541226945437e-01	2.112767605244232905e-01	2.067457082326447371e-01	2.030001057361511818e-01	2.000683783785676406e-01	1.979620582277080432e-01	1.966762873726527194e-01	1.961885049748509080e-01	1.964891265073528681e-01	1.975727907621615820e-01	1.994253616561502407e-01	2.020238188186541106e-01	2.053368484184742715e-01	2.093255652857712035e-01	2.139445195062191774e-01	2.191428124275689726e-01	2.248659347881040438e-01	2.310567514283133339e-01	2.376582803660571563e-01	2.446147431556849328e-01	2.518748691427599162e-01	2.593932302954380376e-01	2.671340268737881218e-01	2.750736914451050730e-01	2.831975189817398375e-01	2.913964690777776645e-01	2.994856566460072922e-01	3.073032169698819982e-01	3.147168266830429051e-01	3.216183644438033173e-01	3.279261538895148487e-01	3.335799197245538084e-01	3.385410503101010105e-01	3.427907157707220098e-01	3.463286535166373303e-01	3.491714067039520808e-01	3.513498186905102960e-01	3.529094050380825465e-01	3.539071914937717001e-01	3.544109809268788935e-01	3.544974823767246264e-01	3.542521141103143201e-01	3.537647693621449041e-01	3.531316435214199578e-01	3.524512515203948038e-01	3.518236838300014546e-01	3.513504204587548641e-01	3.511305124597099980e-01	3.512610852275392936e-01	3.518358504897824424e-01	3.529410142827832941e-01	3.546581216743004417e-01	3.570593629711998340e-01	3.602076612493811392e-01	3.641542762220403295e-01	3.689376991743477108e-01	3.745836857871706060e-01	3.811025536505931455e-01	3.884868955445867078e-01	3.967118092050672118e-01	4.057336171987202533e-01	4.154873504376146442e-01	4.258865676487291196e-01	4.368200784723296759e-01	4.481538034729073972e-01	4.597260776115603687e-01	4.713478991592225387e-01	4.828045982358868393e-01	4.938765349029082818e-01	5.043755515308535609e-01	5.141420201176156723e-01	5.230448763088350050e-01	5.309807087105581358e-01	5.378723610602464955e-01	5.436670774300232933e-01	5.483384784882952001e-01	5.518800487261594778e-01	5.543088400674190952e-01	5.556610625485353117e-01	5.559944148029211108e-01	5.553832753856043913e-01	5.539200594870886674e-01	5.517135066291665169e-01	5.488864650636552378e-01	5.455753036807033940e-01	5.418701153924526670e-01	5.378231336825310960e-01	5.334961081787613635e-01	5.289577580793622946e-01
3.944186673673729104e-01	3.877716119266176875e-01	3.813328448871668996e-01	3.751737797277889253e-01	3.693520111401087935e-01	3.639075293592879401e-01	3.588600942662296123e-01	3.542038304146187810e-01	3.499045573681641708e-01	3.458943847276383932e-01	3.420672262221453597e-01	3.382759112215466546e-01	3.343396138389715389e-01	3.301002987921570209e-01	3.254455338905371531e-01	3.203033804757846603e-01	3.146380059842460164e-01	3.084455043929519302e-01	3.017490054849752967e-01	2.945961255403222179e-01	2.870523588264827786e-01	2.792008150086514595e-01	2.711358951125389938e-01	2.629606875090593210e-01	2.547833791873441722e-01	2.467146517394297189e-01	2.388632173340065057e-01	2.313357093040110390e-01	2.242325463575996769e-01	2.176468603365490639e-01	2.116623736155391622e-01	2.063507513218769407e-01	2.017717107479047034e-01	1.979696076838671215e-01	1.949744867770290546e-01	1.927992368090650221e-01	1.914408161150297216e-01	1.908783706899389032e-01	1.911022722418795061e-01	1.921063499110345907e-01	1.938754610201227913e-01	1.963859724889939762e-01	1.996060015419271749e-01	2.034960940645606786e-01	2.080105375527893097e-01	2.130980832346579257e-01	2.187040249061154018e-01	2.247713805850220237e-01	2.312429056994586563e-01	2.380628655687379580e-01	2.451802740106842626e-01	2.525498999357880248e-01	2.601360967814895786e-01	2.679156034698263467e-01	2.758740869753368852e-01	2.839057017344229772e-01	2.918299829211607466e-01	2.994891797255481714e-01	3.067547982155098829e-01	3.135214742420433520e-01	3.197100151041641358e-01	3.252620602233903813e-01	3.301405516170978771e-01	3.343275237678762224e-01	3.378232939717089045e-01	3.406445366795907703e-01	3.428219748957168633e-01	3.444003473537602389e-01	3.454358373252814918e-01	3.459953504978351968e-01	3.461538671946938761e-01	3.459952520266679210e-01	3.456076038647613591e-01	3.450852143222767898e-01	3.445242240822137259e-01	3.440227541921582755e-01	3.436798557051655711e-01	3.435922820137204958e-01	3.438547623807579612e-01	3.445590062867494585e-01	3.457886704589299143e-01	3.476232977179897765e-01	3.501332511835796857e-01	3.533794188608085363e-01	3.574115615128812817e-01	3.622667918286262001e-01	3.679697166586256007e-01	3.745298111174210631e-01	3.819393944539637986e-01	3.901733784030760321e-01	3.991884028274266805e-01	4.089203301733863039e-01	4.192838898807002002e-01	4.301698063067763145e-01	4.414463742653613187e-01	4.529549567059477644e-01	4.645101625089367858e-01	4.759008831682052243e-01	4.869061575902801087e-01	4.973330971702975001e-01	5.070179578626448080e-01	5.158264179859031184e-01	5.236521876595232605e-01	5.304160476842032512e-01	5.360634675995722409e-01	5.405670300238151205e-01	5.439197681218458369e-01	5.461384055802428472e-01	5.472597022328183902e-01	5.473418654806828654e-01	5.464605211803165163e-01	5.447094850010468781e-01	5.421994111818080331e-01	5.390550189265960190e-01	5.354151553166027755e-01	5.313723613666012646e-01	5.269814294429140400e-01	5.223065764231665797e-01	5.174192486098496691e-01
3.853157847793160506e-01	3.788136788968148316e-01	3.725397088264477685e-01	3.665641720404206327e-01	3.609432627515347658e-01	3.557150127128465011e-01	3.508967966147625850e-01	3.464798286409123129e-01	3.424265037466309725e-01	3.386647957436647594e-01	3.350840558636998257e-01	3.315320148583800752e-01	3.278241377602001960e-01	3.238015249288732078e-01	3.193510329931803504e-01	3.144001652915131562e-01	3.089124984332143331e-01	3.028836778044413647e-01	2.963364611860795361e-01	2.893180053260209772e-01	2.818938044917557173e-01	2.741466182287723985e-01	2.661706725029287512e-01	2.580693401573997958e-01	2.499508300637988123e-01	2.419259332265701612e-01	2.341038869939632283e-01	2.265916967011021022e-01	2.194903500006652186e-01	2.128936570913595450e-01	2.068864125894643302e-01	2.015410256266617628e-01	1.969184826792280407e-01	1.930644087213418403e-01	1.900100519367571850e-01	1.877702486480127553e-01	1.863432482565789139e-01	1.857103193581885747e-01	1.858616804835573344e-01	1.867902854736034346e-01	1.884802038817071645e-01	1.909071023883065488e-01	1.940385292731584832e-01	1.978345271248239667e-01	2.022490989669367967e-01	2.072307115552807499e-01	2.127245930383598049e-01	2.186734331968099854e-01	2.250201187536018665e-01	2.317091557353459230e-01	2.386894047824951459e-01	2.459159192778010705e-01	2.533533590134466884e-01	2.609787911486937118e-01	2.687781671303418607e-01	2.766485955298116362e-01	2.844144256671355953e-01	2.919221738162277591e-01	2.990467815946272201e-01	3.056859484007582450e-01	3.117628886066146077e-01	3.172211454096155459e-01	3.220250394234788760e-01	3.261577320785976619e-01	3.296197923194940094e-01	3.324280915394973723e-01	3.346131229767457249e-01	3.362189251255003897e-01	3.373007840755754549e-01	3.379242597419057637e-01	3.381630851463115484e-01	3.380991773587389559e-01	3.378190378290337192e-01	3.374145073325570121e-01	3.369799321888153343e-01	3.366109497837310727e-01	3.364044338634379350e-01	3.364547088649609274e-01	3.368541735669425274e-01	3.376921522593574476e-01	3.390502009512051940e-01	3.410057836274222320e-01	3.436270751594970307e-01	3.469733661313803008e-01	3.510926557665065562e-01	3.560207547460476629e-01	3.617811648552640147e-01	3.683827703816934807e-01	3.758171903348754839e-01	3.840594458620402163e-01	3.930666582404523934e-01	4.027752369785229658e-01	4.131014597015719714e-01	4.239379381310470207e-01	4.351551881525793641e-01	4.465976581455699534e-01	4.580835812764383896e-01	4.694056319730716131e-01	4.803415826933728483e-01	4.906937279512115224e-01	5.002944927280793541e-01	5.090060755151092353e-01	5.167195822454822007e-01	5.233536094037426478e-01	5.288518714861111247e-01	5.331859923845462257e-01	5.363483720396503562e-01	5.383557587557935564e-01	5.392448904843065716e-01	5.390750523385194892e-01	5.379227017092144125e-01	5.358831532157094513e-01	5.330687186949217837e-01	5.296062700399766232e-01	5.256369807133933758e-01	5.212557003317559445e-01	5.165197486880139799e-01	5.114959117999006155e-01	5.062582222911817809e-01
3.760245487307110057e-01	3.696760688104263060e-01	3.635753095233260068e-01	3.577914195113309215e-01	3.523792581558635173e-01	3.473747346092628807e-01	3.427929368426064771e-01	3.386219717271334861e-01	3.348210612583442103e-01	3.313141966363299384e-01	3.279861665953589522e-01	3.246794391502454413e-01	3.212061641375186238e-01	3.174067307362387069e-01	3.131673938069425844e-01	3.084149126836465138e-01	3.031124372673016931e-01	2.972551971769147872e-01	2.908656219561467915e-01	2.839903212908493346e-01	2.766946581536227079e-01	2.690609325578415256e-01	2.611837205890694125e-01	2.531659574408490210e-01	2.451160926920914196e-01	2.371448735822777876e-01	2.293620626392163520e-01	2.218749934352555186e-01	2.147851569201509880e-01	2.081871072969848357e-01	2.021662300090401043e-01	1.967960720770431382e-01	1.921385609239799064e-01	1.882406782378895360e-01	1.851350507988681338e-01	1.828377403484251207e-01	1.813491407712296832e-01	1.806521180841729746e-01	1.807368689354890423e-01	1.815955156317945185e-01	1.832113837220945840e-01	1.855595052948603163e-01	1.886069034502896591e-01	1.923132487747560848e-01	1.966321066422609953e-01	2.015118781611432985e-01	2.068976383025356303e-01	2.127321206120372510e-01	2.189581461651738670e-01	2.255202866360008496e-01	2.323676652547506105e-01	2.394555323465092644e-01	2.467488321757208836e-01	2.542247631965369181e-01	2.618699552126872443e-01	2.695842302233133481e-01	2.771966860469594618e-01	2.845579528640842515e-01	2.915464078418411042e-01	2.980629452209710428e-01	3.040328800917033725e-01	3.094018344872112025e-01	3.141354747938320258e-01	3.182177173875748166e-01	3.216497658049287112e-01	3.244484039092965788e-01	3.266440374088900866e-01	3.282799936173177446e-01	3.294106395601656412e-01	3.301001674972673383e-01	3.304210193840274035e-01	3.304532960444175882e-01	3.302815732699009854e-01	3.299958974723458116e-01	3.296881531920763941e-01	3.294520302741507090e-01	3.293818640968347311e-01	3.295697580252688330e-01	3.301058131775254090e-01	3.310770671242497798e-01	3.325628876262794464e-01	3.346384410079806249e-01	3.373702500134795890e-01	3.408156029796587383e-01	3.450209345325166432e-01	3.500207971105320781e-01	3.558377406110149188e-01	3.624795661386628343e-01	3.699377723493662562e-01	3.781871396830576160e-01	3.871852817728381191e-01	3.968695709563099805e-01	4.071573461591518339e-01	4.179432651148427547e-01	4.290999280153884876e-01	4.404751367304981513e-01	4.518904669756589887e-01	4.631424882604862625e-01	4.740074029748270745e-01	4.842830634887818064e-01	4.937978195135541704e-01	5.024106548669614591e-01	5.100099066644323553e-01	5.165120378485529296e-01	5.218593655139441845e-01	5.260222737732155318e-01	5.289927563734040383e-01	5.307872566317923813e-01	5.314430937531291477e-01	5.310199686178954659e-01	5.295957254191457908e-01	5.272670409606794450e-01	5.241479229717390664e-01	5.203673249165139403e-01	5.160686762046130527e-01	5.113493914897628834e-01	5.062690347159771731e-01	5.008971820883528769e-01	4.953102942458526559e-01
3.664711714935336428e-01	3.602935171660190394e-01	3.543824789945682618e-01	3.488060130258535119e-01	3.436172171015270393e-01	3.388502169516757756e-01	3.345175293557867691e-01	3.306044821099333730e-01	3.270669820136504757e-01	3.238252236564681530e-01	3.207594989226816851e-01	3.177078555658179315e-01	3.144791610501630474e-01	3.109134982000346104e-01	3.068965091664840328e-01	3.023547563411930761e-01	2.972509300929987996e-01	2.915799099212020851e-01	2.853635126599784466e-01	2.786480854054000922e-01	2.714985315979533409e-01	2.639970199561230135e-01	2.562377107983219715e-01	2.483232767283134190e-01	2.403620360301186865e-01	2.324649547680351924e-01	2.247416860574630582e-01	2.172998479430117147e-01	2.102412596116612353e-01	2.036609129161260356e-01	1.976449154215826343e-01	1.922675581531325673e-01	1.875917094804713803e-01	1.836653795682743895e-01	1.805225956754614447e-01	1.781809294347737604e-01	1.766424377994836314e-01	1.758913872653060095e-01	1.759183902476256500e-01	1.767146718713127895e-01	1.782629012109240019e-01	1.805375414104082310e-01	1.835050903904044683e-01	1.871250436774333226e-01	1.913508572330880064e-01	1.961308008708177453e-01	2.014098620318286736e-01	2.071309930865362914e-01	2.132371464053559873e-01	2.196731124871593721e-01	2.263883209169214872e-01	2.333383283744712433e-01	2.404882979490687855e-01	2.478159313919429119e-01	2.553081648615661559e-01	2.628677963745804647e-01	2.703281251860010781e-01	2.775439391477946272e-01	2.843969415643208265e-01	2.907908932814128877e-01	2.966534070498703657e-01	3.019318555013959515e-01	3.065932179712243522e-01	3.106222423696661794e-01	3.140208105901407531e-01	3.168055095537163912e-01	3.190065808499926159e-01	3.206666734356476423e-01	3.218392899782435701e-01	3.225875176722921567e-01	3.229822010520396747e-01	3.231018544615403831e-01	3.230293906236542112e-01	3.228527224082913816e-01	3.226617649324303727e-01	3.225478666155958685e-01	3.226034590601526419e-01	3.229181182046141352e-01	3.235799866849475848e-01	3.246735527626895546e-01	3.262762147753316966e-01	3.284613446837473805e-01	3.312932551014191596e-01	3.348276260028303919e-01	3.391095243588783115e-01	3.441719817755690691e-01	3.500365634385396163e-01	3.567104686842431649e-01	3.641847038127336011e-01	3.724341039701473677e-01	3.814165563206060039e-01	3.910702428535316466e-01	4.013136950898512079e-01	4.120434854801856561e-01	4.231345665833148306e-01	4.344373169311587790e-01	4.457770213198392617e-01	4.569537559266513282e-01	4.677422050442796575e-01	4.779358363405698529e-01	4.873589977678993712e-01	4.958674967651127696e-01	5.033470484818525215e-01	5.097119968500823939e-01	5.149032330130234314e-01	5.188901808184468445e-01	5.216642859256079845e-01	5.232421099539557030e-01	5.236612032419508678e-01	5.229822787348494817e-01	5.212840559249707351e-01	5.186648979348539301e-01	5.152404906065508605e-01	5.111419606082069356e-01	5.065149523523460040e-01	5.014592886768923785e-01	4.960370340267775124e-01	4.903202787845664656e-01	4.843879051935356950e-01
3.566118990457837756e-01	3.506302461061436837e-01	3.449328356615126712e-01	3.395862123384985054e-01	3.346419203225582950e-01	3.301317986244496905e-01	3.260660225981262816e-01	3.224271300232549597e-01	3.191678985044986705e-01	3.162048573157162368e-01	3.134145126718825280e-01	3.106306233601268119e-01	3.076596607129977734e-01	3.043415762599232521e-01	3.005621872118077187e-01	2.962479684304063499e-01	2.913612820473319709e-01	2.858965261472897756e-01	2.798751674447493842e-01	2.733431372686321303e-01	2.663647701149022828e-01	2.590216876400041057e-01	2.514075031003100147e-01	2.436246046273220778e-01	2.357808509729476532e-01	2.279867486693700485e-01	2.203519289495078359e-01	2.129838347981174718e-01	2.059843510496238705e-01	1.994488196764473698e-01	1.934635889510623596e-01	1.881034531956475853e-01	1.834321560791634664e-01	1.794986268305133470e-01	1.763379211852532380e-01	1.739691206673561752e-01	1.723956170614733274e-01	1.716036244041837799e-01	1.715837113459091623e-01	1.723264246545894163e-01	1.738138644602589544e-01	1.760199687273078795e-01	1.789112134938935506e-01	1.824468535792387325e-01	1.865803449449366658e-01	1.912600886993262861e-01	1.964313567558748364e-01	2.020373203098139170e-01	2.080214350286362923e-01	2.143287977659561749e-01	2.209093195213443495e-01	2.277189508592988021e-01	2.347234019311202624e-01	2.419007027252617625e-01	2.492382051673467103e-01	2.566412894068482164e-01	2.639476093126240097e-01	2.710156508760345195e-01	2.777302465963112921e-01	2.839977175696370426e-01	2.897480398548263891e-01	2.949301397397770530e-01	2.995122657436577462e-01	3.034800629585255316e-01	3.068356758675791496e-01	3.095959102167030741e-01	3.117906355933093288e-01	3.134620195394805520e-01	3.146626456585506770e-01	3.154544194910239852e-01	3.159069054459719972e-01	3.160972392711067780e-01	3.161064299133873878e-01	3.160205411730270808e-01	3.159276938035114335e-01	3.159171683298519495e-01	3.160791643412882990e-01	3.165012555292654461e-01	3.172694400465519426e-01	3.184661929663751834e-01	3.201669869678442915e-01	3.224430604698746428e-01	3.253571177235496936e-01	3.289632412821943963e-01	3.333048569305845921e-01	3.384140115630533963e-01	3.443112200061200778e-01	3.510029813568258938e-01	3.584799846192412986e-01	3.667169336446131078e-01	3.756721313642134019e-01	3.852844600068763281e-01	3.954736983949812545e-01	4.061379835765848156e-01	4.171544618292494233e-01	4.283762743481996371e-01	4.396318296538086479e-01	4.507246066492633929e-01	4.614279028249758663e-01	4.715304838505535168e-01	4.808531431427655045e-01	4.892484255992123887e-01	4.965995690332774548e-01	5.028190330901087801e-01	5.078463971607283245e-01	5.116501196993626932e-01	5.142214699377591902e-01	5.155769036730533106e-01	5.157545935267767723e-01	5.148161031256586195e-01	5.128414628594328839e-01	5.099304041895673656e-01	5.062006733305242090e-01	5.017852405495251134e-01	4.968321948571091662e-01	4.914436583758611810e-01	4.856842890521769207e-01	4.796282137925456657e-01	4.733574112113931864e-01
3.464284157503450534e-01	3.406742859133538026e-01	3.352205040778442058e-01	3.301319627430618353e-01	3.254581381999505640e-01	3.212288562709590400e-01	3.174517867658952497e-01	3.141068306253907982e-01	3.111435924942738129e-01	3.084756803351065835e-01	3.059761538720088270e-01	3.034751612826425138e-01	3.007775108309531098e-01	2.977237229908905602e-01	2.942002933302896306e-01	2.901337623583503111e-01	2.854865797366119562e-01	2.802526183702207518e-01	2.744531261488302731e-01	2.681332028670602718e-01	2.613567016062791626e-01	2.542043687236666405e-01	2.467689202938484760e-01	2.391520223264334000e-01	2.314608989813617401e-01	2.238053346689233003e-01	2.162942603826248089e-01	2.090347471050352235e-01	2.021284389632815592e-01	1.956704591049679975e-01	1.897471776850505054e-01	1.844338266753403066e-01	1.797944779820220551e-01	1.758787610734109941e-01	1.727227820441809003e-01	1.703468259547939456e-01	1.687556850687249865e-01	1.679371927261930908e-01	1.678820488725095150e-01	1.685803407435002010e-01	1.700135995246774834e-01	1.721556537680232757e-01	1.749728482168053378e-01	1.784246127500992707e-01	1.824646440367961864e-01	1.870417151874225747e-01	1.921016014125229432e-01	1.975880647343326579e-01	2.034451735298298536e-01	2.096188124219670601e-01	2.160593738249107498e-01	2.227234866600890928e-01	2.295774519058065843e-01	2.365998028475936044e-01	2.437782634132610038e-01	2.510206208252601656e-01	2.581683802692140706e-01	2.650834851685791582e-01	2.716537221576056926e-01	2.777879507003444548e-01	2.834180068665476671e-01	2.884943487178266430e-01	2.929865596047288578e-01	2.968808316813518755e-01	3.001798564929349378e-01	3.029004835503258386e-01	3.050722323212306519e-01	3.067368326980994819e-01	3.079461023974096601e-01	3.087608966005477296e-01	3.092495980625775687e-01	3.094878326399795876e-01	3.095550556235177053e-01	3.095357115097651657e-01	3.095160391587883919e-01	3.095835247321059303e-01	3.098263765131298308e-01	3.103303300648491692e-01	3.111792609393151388e-01	3.124539154937073238e-01	3.142279282786784589e-01	3.165706667609655689e-01	3.195432268292529021e-01	3.231982139693561074e-01	3.275777628996353608e-01	3.327127279191755549e-01	3.386228251439167281e-01	3.453137768428025667e-01	3.527759766064017533e-01	3.609841501684425968e-01	3.698968083437727539e-01	3.794536211305645224e-01	3.895753958278335150e-01	4.001617356099050338e-01	4.110917835307891788e-01	4.222211644473745640e-01	4.333812464856734437e-01	4.443787635680139236e-01	4.549851312913885115e-01	4.649850451838233312e-01	4.741954555512529756e-01	4.824660133330835876e-01	4.896777010794365337e-01	4.957411616766147500e-01	5.005947986741666744e-01	5.042063908872123079e-01	5.065670263331978340e-01	5.076934611805103970e-01	5.076244474235741544e-01	5.064224798058065691e-01	5.041689136328210141e-01	5.009653049889476462e-01	4.969310243500377755e-01	4.922012380954923216e-01	4.869263482825402778e-01	4.812107466574071513e-01	4.751214893497086589e-01	4.687351144418776538e-01	4.621358011053979253e-01
3.359226472656001161e-01	3.304325842755638232e-01	3.252569506639320096e-01	3.204587679777716192e-01	3.160855321434398180e-01	3.121644540268317947e-01	3.087010042483525063e-01	3.056723374971903051e-01	3.030254106378971191e-01	3.006711400877959961e-01	2.984796314359879910e-01	2.962784069623404237e-01	2.938713777490524204e-01	2.911007492211586944e-01	2.878538484807955933e-01	2.840578943940933465e-01	2.796753147401096484e-01	2.747001137188804787e-01	2.691527952156842485e-01	2.630777150207656012e-01	2.565378509162282716e-01	2.496128113702074658e-01	2.423942620982113827e-01	2.349827531032860073e-01	2.274841299490295843e-01	2.200070391566876782e-01	2.126596677153918813e-01	2.055479706011485441e-01	1.987730229965625206e-01	1.924292696923078083e-01	1.866029276659690039e-01	1.813689881820594596e-01	1.767917419715800964e-01	1.729214093298498678e-01	1.697947528259912131e-01	1.674330422321391731e-01	1.658424921730739798e-01	1.650125334101729402e-01	1.649341722434900515e-01	1.655967737869577516e-01	1.669818035786435340e-01	1.690630901705293121e-01	1.718071533657357375e-01	1.751737731630444439e-01	1.791172370583502538e-01	1.835870840490363698e-01	1.885298771149856167e-01	1.938902535776982072e-01	1.996132446433435681e-01	2.056456102341390479e-01	2.119386837109607791e-01	2.184500349419466469e-01	2.251466432623313862e-01	2.320072826649431375e-01	2.390204429644495476e-01	2.460958808066477932e-01	2.530786025742201018e-01	2.598337246504580089e-01	2.662516376849244915e-01	2.722434769197588644e-01	2.777428071407614385e-01	2.827016838307017110e-01	2.870904999919472456e-01	2.908963011953786815e-01	2.941220853409780567e-01	2.967847457045563742e-01	2.989137798713379923e-01	3.005501737293980735e-01	3.017451979331733369e-01	3.025587448348590613e-01	3.030580593004748580e-01	3.033175636500119454e-01	3.034152251654840815e-01	3.034340659821592734e-01	3.034586837739823295e-01	3.035747046915340253e-01	3.038688271269947005e-01	3.044248828674523955e-01	3.053251062788367443e-01	3.066483618249079557e-01	3.084666866351605807e-01	3.108479382850996564e-01	3.138516152422513028e-01	3.175290100435338991e-01	3.219210648120592322e-01	3.270575944290353143e-01	3.329574397111372264e-01	3.396258415127131891e-01	3.470528104809034176e-01	3.552129848195098027e-01	3.640652473455674443e-01	3.735497166481219766e-01	3.835883160327516195e-01	3.940819287989563713e-01	4.049114814229985426e-01	4.159348034217899004e-01	4.269861240558147086e-01	4.378745897909995244e-01	4.483702704517174564e-01	4.582534987462213438e-01	4.673379070491701093e-01	4.754703535482531218e-01	4.825296188688787957e-01	4.884249262713546980e-01	4.930936836523157063e-01	4.965032047386688796e-01	4.986445122423294185e-01	4.995347856209381709e-01	4.992136379787624478e-01	4.977446157005142591e-01	4.952105894536592001e-01	4.917146277781123120e-01	4.873781791306948108e-01	4.823384288916505724e-01	4.767481181503456233e-01	4.707138925486123449e-01	4.643050415968469347e-01	4.576002683755076017e-01	4.506859895398236393e-01
3.251145394735460159e-01	3.199286648605157990e-01	3.150693096969853779e-01	3.105971650457291511e-01	3.065571775239954722e-01	3.029743806907581605e-01	2.998515536211830979e-01	2.971633782840353288e-01	2.948546889431496454e-01	2.928337761180547782e-01	2.909688197394689202e-01	2.890854383113586334e-01	2.869878055057024091e-01	2.845204900555499683e-01	2.815722414243430061e-01	2.780714820147008326e-01	2.739809240779422228e-01	2.692945280491400029e-01	2.640320756916789691e-01	2.582372006739104275e-01	2.519715240640775233e-01	2.453133194989366994e-01	2.383527646852458826e-01	2.311887246749663727e-01	2.239254257280564320e-01	2.166699169446033579e-01	2.095288535400253449e-01	2.026070526012843653e-01	1.960040356547903817e-01	1.898135034868421445e-01	1.841208853056860162e-01	1.790008222561293716e-01	1.745173424793937111e-01	1.707208850956141999e-01	1.676487816184353552e-01	1.653231990017386965e-01	1.637516429367200654e-01	1.629249008986172476e-01	1.628343730721533711e-01	1.634692495114079547e-01	1.648108863420403303e-01	1.668331996459589406e-01	1.695033875832147041e-01	1.727818428620745417e-01	1.766238376901062557e-01	1.809799176588475500e-01	1.857979149321152823e-01	1.910236047204539322e-01	1.966033530614116898e-01	2.024851671786583873e-01	2.086216496170040513e-01	2.149712017788882046e-01	2.215017220637736095e-01	2.281927065863818826e-01	2.350328639861968827e-01	2.419337671549902924e-01	2.487435297878344553e-01	2.553300692256682547e-01	2.615862707209594684e-01	2.674251295267852102e-01	2.727818516150671835e-01	2.776097835349906062e-01	2.818801717057061729e-01	2.855808275849512912e-01	2.887150116624874197e-01	2.912997485090152439e-01	2.933641637075716235e-01	2.949490462038971139e-01	2.961048788830901168e-01	2.968908757404156717e-01	2.973732969302204654e-01	2.976252737060801068e-01	2.977237229908905602e-01	2.977501789111697272e-01	2.977878167795569575e-01	2.979208403853277343e-01	2.982342631695776847e-01	2.988104945580893901e-01	2.997301277306710920e-01	3.010705610248143871e-01	3.029021903838922669e-01	3.052915604345125544e-01	3.082968566953041001e-01	3.119681244017329380e-01	3.163451677878666990e-01	3.214570249068156582e-01	3.273216284522678099e-01	3.339437925701797538e-01	3.413131449642632931e-01	3.494044770156916613e-01	3.581765293053695287e-01	3.675703066628480120e-01	3.775083451031907567e-01	3.878927533448686127e-01	3.986061756389509547e-01	4.095082030421201003e-01	4.204354882996996778e-01	4.311996779511415023e-01	4.415691896934562100e-01	4.513202860933153149e-01	4.602633499768570835e-01	4.682428598118946739e-01	4.751355844031824316e-01	4.808496145926042242e-01	4.853215841840075040e-01	4.885185600425535624e-01	4.904316783955309234e-01	4.910788541571113330e-01	4.905006601835292246e-01	4.887617838257650171e-01	4.859466873599083692e-01	4.821602740351926264e-01	4.775257859881043565e-01	4.721826830093208693e-01	4.662858930687152070e-01	4.599442186002143940e-01	4.532290949650685796e-01	4.462211645786694492e-01	4.390091308155758543e-01
3.140386229301798116e-01	3.091996403570380636e-01	3.046968602315131558e-01	3.005882492474176715e-01	2.969163250665402543e-01	2.937033202902072371e-01	2.909495412731613051e-01	2.886275473834504224e-01	2.866797439294495042e-01	2.850128896569737447e-01	2.834936546055096263e-01	2.819468695096853383e-01	2.801781085203031152e-01	2.780348726229497913e-01	2.754084934138982255e-01	2.722285968322569749e-01	2.684585953687566029e-01	2.640922743986168775e-01	2.591488467407006557e-01	2.536709394692045483e-01	2.477186199961766977e-01	2.413683675948807006e-01	2.347084343136918438e-01	2.278355407213726314e-01	2.208519217720538719e-01	2.138624820826240391e-01	2.069717542677841637e-01	2.002826735210768427e-01	1.938933171251250864e-01	1.878957446801061415e-01	1.823742693877036525e-01	1.774027665058683645e-01	1.730447608787444302e-01	1.693506478615038613e-01	1.663580215575705401e-01	1.640898585726459913e-01	1.625546274271173208e-01	1.617449318421968485e-01	1.616522376500525437e-01	1.622658005522087943e-01	1.635671298516963024e-01	1.655307543399088255e-01	1.681244630039010202e-01	1.713100709132452382e-01	1.750438787521453599e-01	1.792778982384077013e-01	1.839616027219706518e-01	1.890423648345369301e-01	1.944682355647395777e-01	2.001887320274801929e-01	2.061579447763190187e-01	2.123355662801111599e-01	2.186904577675106987e-01	2.252026186503165439e-01	2.318610201577919472e-01	2.385787888379036770e-01	2.452068831083347444e-01	2.516155398530757759e-01	2.576996793953852949e-01	2.633742007642412841e-01	2.685756447629444321e-01	2.732584082997976949e-01	2.773947225056246912e-01	2.809728583702768012e-01	2.839963608557765640e-01	2.864823639452328541e-01	2.884598181618295287e-01	2.899692498615276670e-01	2.910603979250505624e-01	2.917919949330676221e-01	2.922292287983261350e-01	2.924443992401001835e-01	2.925133071747230140e-01	2.925163488396682610e-01	2.925351896563435083e-01	2.926530487023513150e-01	2.929532982326657486e-01	2.935171441365803102e-01	2.944237791150794425e-01	2.957491791443494500e-01	2.975624928663109792e-01	2.999290613710827724e-01	3.029058009933596196e-01	3.065415753146000788e-01	3.108755539769046949e-01	3.159356152618580382e-01	3.217392651547564264e-01	3.282906722683485712e-01	3.355793658351790554e-01	3.435798308816784274e-01	3.522512675208653854e-01	3.615348556421440485e-01	3.713540393835652598e-01	3.816119231165135406e-01	3.921923655697883149e-01	4.029567193398422842e-01	4.137439238913284689e-01	4.243674310684322770e-01	4.345940064408020942e-01	4.441963785543276977e-01	4.529818940408225636e-01	4.607927446487704026e-01	4.675041783504529924e-01	4.730233231585629361e-01	4.772862029027724606e-01	4.802601169496100719e-01	4.819365393371743966e-01	4.823342835290385655e-01	4.814948934165590999e-01	4.794845744478787308e-01	4.763894341881739214e-01	4.723161387941037237e-01	4.673900037672880092e-01	4.617524446451992115e-01	4.555606952642108354e-01	4.489256970708285222e-01	4.419207317606889673e-01	4.346283564663258603e-01	4.271389950724152618e-01
3.027413103790185800e-01	2.982931708100999835e-01	2.941884767902145925e-01	2.904822189956746126e-01	2.872138296583601758e-01	2.844029811292481114e-01	2.820473976302497743e-01	2.801174502812511791e-01	2.785537719096158882e-01	2.772617207823354635e-01	2.761075949367088334e-01	2.749163564022539252e-01	2.734961176976408170e-01	2.716982967726665477e-01	2.694171355936594847e-01	2.665841201106658453e-01	2.631635381136810947e-01	2.591489999180719983e-01	2.545593025755505945e-01	2.494354319741919901e-01	2.438359018698492975e-01	2.378350470525872895e-01	2.315186906153213764e-01	2.249809491115012106e-01	2.183213878324999357e-01	2.116423292623748065e-01	2.050458551778853167e-01	1.986323405222245597e-01	1.924977837422614801e-01	1.867322968973091912e-01	1.814187708277460176e-01	1.766297459601437747e-01	1.724279593693083534e-01	1.688635000556690247e-01	1.659739621226497264e-01	1.637830442978454315e-01	1.623001998133161705e-01	1.615194985165427921e-01	1.614329314192522458e-01	1.620297979879320727e-01	1.632922202350983731e-01	1.651954709565200408e-01	1.677086302056673139e-01	1.707946947061200205e-01	1.744118908004646806e-01	1.785140245700004846e-01	1.830525169055300105e-01	1.879767973920283275e-01	1.932368426765110891e-01	1.987842924745970574e-01	2.045747691135599289e-01	2.105695624834130752e-01	2.167383872295937930e-01	2.230621180631658096e-01	2.295296168009842430e-01	2.360553448223947637e-01	2.424924487932424155e-01	2.487134413756063311e-01	2.546150810212011728e-01	2.601136453553469785e-01	2.651469662477601297e-01	2.696704909658612093e-01	2.736570633499593730e-01	2.770954576869831820e-01	2.799895909411427852e-01	2.823565095656204726e-01	2.842251640836001569e-01	2.856355556714840760e-01	2.866372481501425207e-01	2.872881425659433163e-01	2.876528578871115904e-01	2.878027528862118212e-01	2.878126218854226148e-01	2.877619201755080014e-01	2.877312628187577159e-01	2.878025121789139495e-01	2.880581652116858682e-01	2.885779835625800205e-01	2.894399782785734287e-01	2.907190968592161529e-01	2.924832187624948898e-01	2.947966347194105885e-01	2.977151888230585852e-01	3.012869350030775717e-01	3.055499925424502439e-01	3.105316488957574617e-01	3.162488411037733815e-01	3.227052563646510830e-01	3.298901284974332659e-01	3.377779315873096766e-01	3.463279751597070910e-01	3.554818001649763803e-01	3.651634196856905490e-01	3.752769009224253827e-01	3.857071857868205056e-01	3.963171148840788915e-01	4.069472305706320903e-01	4.174129978789748452e-01	4.274794153683644238e-01	4.369158362119008321e-01	4.455269866142234081e-01	4.531530806945394674e-01	4.596682394773273228e-01	4.649788442355941576e-01	4.690207656216410226e-01	4.717615546505350421e-01	4.731934786003334503e-01	4.733362672635273993e-01	4.722327938922317725e-01	4.699509789740862198e-01	4.665784563773603955e-01	4.622239136529529557e-01	4.570146822261030861e-01	4.510942619406574927e-01	4.446218615269560415e-01	4.377105040025685012e-01	4.304352189263508932e-01	4.228802429113013850e-01	4.151374112621605272e-01
2.912775596726520644e-01	2.872645970157196582e-01	2.835996971114423948e-01	2.803346120288526810e-01	2.775055791575139486e-01	2.751292510659394397e-01	2.732008354906542702e-01	2.716887778931616482e-01	2.705320261497405898e-01	2.696355665251949918e-01	2.688657627042685960e-01	2.680488021354501260e-01	2.669964954768035414e-01	2.655650529416007100e-01	2.636523708706006719e-01	2.611920140496035714e-01	2.581493206277226116e-01	2.545180759801776160e-01	2.503161143294892477e-01	2.455829992024273212e-01	2.403752749314990722e-01	2.347645628790483441e-01	2.288338195328983027e-01	2.226742073114797993e-01	2.163820966638493604e-01	2.100567246441558400e-01	2.037969781868420871e-01	1.977003656300088952e-01	1.918603251701756773e-01	1.863645617936772469e-01	1.812939093876196339e-01	1.767193547223795680e-01	1.727026282786084665e-01	1.692930750523604089e-01	1.665282891470593885e-01	1.644323631749695092e-01	1.630157131973421769e-01	1.622738533054451371e-01	1.621995403978620243e-01	1.627824021783047526e-01	1.640052171337380293e-01	1.658445491263463023e-01	1.682709662183500543e-01	1.712494126741933020e-01	1.747399310824370722e-01	1.786989534221750386e-01	1.830800231849269155e-01	1.878351958534623112e-01	1.929168113828117759e-01	1.982786539717929508e-01	2.038784247834334595e-01	2.096789673639417317e-01	2.156512436602074367e-01	2.217766097978899065e-01	2.280439057113627099e-01	2.343684243142730439e-01	2.406053911082199070e-01	2.466290693538120693e-01	2.523378368064040922e-01	2.576492183927684976e-01	2.625021401067024751e-01	2.668527713375202781e-01	2.706747655773508732e-01	2.739572253503472776e-01	2.767042645630540809e-01	2.789329515511353441e-01	2.806722149552932088e-01	2.819617933621504924e-01	2.828508129429451734e-01	2.833966276820044650e-01	2.836632657205498398e-01	2.837212761793256877e-01	2.836447750235805421e-01	2.835121015375156595e-01	2.834031486615273820e-01	2.833986846352767874e-01	2.835801779378369636e-01	2.840263398555966101e-01	2.848142623713047494e-01	2.860176456830590408e-01	2.877036908919159419e-01	2.899354414274240566e-01	2.927680411432668772e-01	2.962485592574101156e-01	3.004144148134247350e-01	3.052924138512957408e-01	3.108987712899040079e-01	3.172368132664558082e-01	3.242956751288265660e-01	3.320495902549081557e-01	3.404580213474986961e-01	3.494628047704509965e-01	3.589884787858969029e-01	3.689397670688608355e-01	3.792025853014145409e-01	3.896410432726949424e-01	4.000972041716062688e-01	4.103879225682260934e-01	4.202766597774779123e-01	4.295297054250348245e-01	4.379496193498557122e-01	4.453749744850264425e-01	4.516790439088624320e-01	4.567677767153590085e-01	4.605773581174903430e-01	4.630757986624376987e-01	4.642563585458618358e-01	4.641399628908123853e-01	4.627712027242114057e-01	4.602193607181795376e-01	4.565741003411566412e-01	4.519460977145586256e-01	4.464646290691787756e-01	4.402752840258584155e-01	4.335392325323528251e-01	4.263713521465489209e-01	4.188482315541183776e-01	4.110554257875767559e-01	4.030862745722762486e-01
