2.287354563289950293e-01	2.220538564238424550e-01	2.148152458514059893e-01	2.070680072582687381e-01	1.988664730489043964e-01	1.903444147029196565e-01	1.818143579644592445e-01	1.734348104860450879e-01	1.632698561727757292e-01	1.498418410512372123e-01	1.329792682538790127e-01	1.133233168178515438e-01	9.191569563566734380e-02	7.060082965341897554e-02	5.172087484542615965e-02	3.722643645244486793e-02	2.845483697881319440e-02	2.597319950083057036e-02	2.947052385329858651e-02	3.769256620249837597e-02	4.864077454078984120e-02	6.232709197192411871e-02	7.933925868196081699e-02	9.890005757970822542e-02	1.194588902241336958e-01	1.392183630886609791e-01	1.565404838526186226e-01	1.701599373379344693e-01	1.793094663045378123e-01	1.838982552171530838e-01	1.844431484288062417e-01	1.818597766290894757e-01	1.771340125210802419e-01	1.709058146787719168e-01	1.644268334516746644e-01	1.597671922939956357e-01	1.580767200575709797e-01	1.595732258279643767e-01	1.637400613980143915e-01	1.696332638976972840e-01	1.761243407864402921e-01	1.821108433356827261e-01	1.866954260092031637e-01	1.893339147968517155e-01	1.899504230430417995e-01	1.890218467263909130e-01	1.876290585303618530e-01	1.867593259730687405e-01	1.862409996290663727e-01	1.861548698005545399e-01	1.868430148752664721e-01	1.886831246123394923e-01	1.919258952206226998e-01	1.965969128384442433e-01	2.024612165140869668e-01	2.090535918448651886e-01	2.157698441860840255e-01	2.220246306900280631e-01	2.274713616140799644e-01	2.322863938844334786e-01	2.373009936749496951e-01	2.430723460047920503e-01	2.498990938496938596e-01	2.579554147373541717e-01	2.672449482632591189e-01	2.775829250230253398e-01	2.886052764981076324e-01	2.998089103399818045e-01	3.106176807625802283e-01	3.204785218098945565e-01	3.289868717393474307e-01	3.360215342006467321e-01	3.419122085980757508e-01	3.475237238423143915e-01	3.530264979986583729e-01	3.578006229592657350e-01	3.611796168704622390e-01	3.626333301514115259e-01	3.618862650383944390e-01	3.589786641246162646e-01	3.542698230459186415e-01	3.483837580763059494e-01	3.421022739408014490e-01	3.361974443501491439e-01	3.312184886220142510e-01	3.272058237014817128e-01	3.233342748334830374e-01	3.187872867839967594e-01	3.139355098550220546e-01	3.095755577843537498e-01	3.065490488887029352e-01	3.054892074007142244e-01	3.066575829337406245e-01	3.098708226924201670e-01	3.145173874591308261e-01	3.196649741457956440e-01	3.242666650974997400e-01	3.274456882998120211e-01	3.288656318010854118e-01	3.291908416444694896e-01	3.295431632051280535e-01	3.296645339072997172e-01	3.288948139469298759e-01	3.266166669064005101e-01	3.224514658852215554e-01	3.163802937044587482e-01	3.087877924044475364e-01	3.004275761906816666e-01	2.923551713421302378e-01	2.857303447677654873e-01	2.814621889616953365e-01	2.798734946349747399e-01	2.803035553399403912e-01	2.814500279180947029e-01	2.836171128113325057e-01	2.874917564251936453e-01	2.935203649533543180e-01	3.018403712648923820e-01	3.122571768682130822e-01
2.302151371430090909e-01	2.244608277093955162e-01	2.183313784128835533e-01	2.118079592504787112e-01	2.048510359334864972e-01	1.974997068709024584e-01	1.900076976354833913e-01	1.825496216346273182e-01	1.732184615974729502e-01	1.604973779656709842e-01	1.441411884085639916e-01	1.247196530746300103e-01	1.032314377361105845e-01	8.152959775713741752e-02	6.202036342777538652e-02	4.676060745938363794e-02	3.722124948402740635e-02	3.410453528467956991e-02	3.719928114720049556e-02	4.526828613410013163e-02	5.619286979270868981e-02	6.979340609909027993e-02	8.658567150100840437e-02	1.058297602095012169e-01	1.260678289834718802e-01	1.456077928316096559e-01	1.628983994933334289e-01	1.767204280687347528e-01	1.862999959463187971e-01	1.914927179758095510e-01	1.927257126742047688e-01	1.908114815943258991e-01	1.866533418242698750e-01	1.808713322357882458e-01	1.747113059783951816e-01	1.701544016657578484e-01	1.682572788640626371e-01	1.691945945686774144e-01	1.724547567769485756e-01	1.771469145601690387e-01	1.822461186002508060e-01	1.867968552151480499e-01	1.900731231782952779e-01	1.916964917350670872e-01	1.917115295846807399e-01	1.906193240290452728e-01	1.893657993968296815e-01	1.885598796274623457e-01	1.876308892250974358e-01	1.865708515912442300e-01	1.858581446954966354e-01	1.861232685223808969e-01	1.878974296610032846e-01	1.914501761171923666e-01	1.967091300669380483e-01	2.032678554849575714e-01	2.104762378002720813e-01	2.176198483923231231e-01	2.241815595862804156e-01	2.301910983776121744e-01	2.365034427958021268e-01	2.439587727545548257e-01	2.528314527303722192e-01	2.629930289759747630e-01	2.740469163472757930e-01	2.854471101393899479e-01	2.966037561497176789e-01	3.069735739214919379e-01	3.161350677858313918e-01	3.238504217789907047e-01	3.301143617566126287e-01	3.351709694531148087e-01	3.395142818162758536e-01	3.437908283065507220e-01	3.478275101984952822e-01	3.509819388887944758e-01	3.527812720800310164e-01	3.529684497197511650e-01	3.515163273997030102e-01	3.486184139122338599e-01	3.446533361578337784e-01	3.401264857504388006e-01	3.355893158911713026e-01	3.315340655240516243e-01	3.282519131849686023e-01	3.256239726860345463e-01	3.229467559871345705e-01	3.197755786194033667e-01	3.166552466185542647e-01	3.143107150998752930e-01	3.133773441065359489e-01	3.142383808638350984e-01	3.169311366740025226e-01	3.211222289492989268e-01	3.261491641352953219e-01	3.311334484927497823e-01	3.351688881275523557e-01	3.375681334454415650e-01	3.381708243051750884e-01	3.377232303393192803e-01	3.374018889282633382e-01	3.371450795066364692e-01	3.364015995041432783e-01	3.345610756813562348e-01	3.311745519483604849e-01	3.260974034210454287e-01	3.195570503323365008e-01	3.121412982502481115e-01	3.047667585936951751e-01	2.985048454566733289e-01	2.942243542551229996e-01	2.922800692700017744e-01	2.921414813197216742e-01	2.927764272771772314e-01	2.948118547073481643e-01	2.990480387375006321e-01	3.058619281312834892e-01	3.152101964466215156e-01	3.266669238356890714e-01
2.319979940816254416e-01	2.269894966068944919e-01	2.218101342901764583e-01	2.163940457089605085e-01	2.106185525219781418e-01	2.044271429262609352e-01	1.979971109893553793e-01	1.914979485321968988e-01	1.831242854297185363e-01	1.713917987491124506e-01	1.560062043116348107e-01	1.374526580161981593e-01	1.166442842441257621e-01	9.537583944981520290e-02	7.603537773988530701e-02	6.070710148281914520e-02	5.093031983544669267e-02	4.750142859571329645e-02	5.030378635618083794e-02	5.815903593871706023e-02	6.891863913127432850e-02	8.219950126644846866e-02	9.836876381466221064e-02	1.166945411734142957e-01	1.358235140534153063e-01	1.542133439339276046e-01	1.704651620971218418e-01	1.834832977437559076e-01	1.925667909359688457e-01	1.975866212828724100e-01	1.989287384638989131e-01	1.973183155341858286e-01	1.935463651773965121e-01	1.881270946743782424e-01	1.822075650408789826e-01	1.776436648590735690e-01	1.753834760621407474e-01	1.755553434274353952e-01	1.776624730680831099e-01	1.808820112884124420e-01	1.843113819958146771e-01	1.871596378885813095e-01	1.888867240197174557e-01	1.892903922089119173e-01	1.885385433161989033e-01	1.871500485352044774e-01	1.859198870548524063e-01	1.850891875245999629e-01	1.837631107164947042e-01	1.818854717373423746e-01	1.800724519235589183e-01	1.791800100339506763e-01	1.799750763988142432e-01	1.829165233712156391e-01	1.880389815932362041e-01	1.949462800065033252e-01	2.029082111453567316e-01	2.110674432299383119e-01	2.187482319629711347e-01	2.258756278302213594e-01	2.333769648911978856e-01	2.423298903195913456e-01	2.529479633739006306e-01	2.648043488589323369e-01	2.771329446158178333e-01	2.890747625218429984e-01	2.998672310437008881e-01	3.089771603396548882e-01	3.161778275842980213e-01	3.215705094256805507e-01	3.255547114018719213e-01	3.287225760838911603e-01	3.316914398893562876e-01	3.348391124443217959e-01	3.377053156836925529e-01	3.397015139409583773e-01	3.405665281005103573e-01	3.402894938608523878e-01	3.390354679669829729e-01	3.370786187495395936e-01	3.347414100098029532e-01	3.323414236964254975e-01	3.301490795746337414e-01	3.283515770781327281e-01	3.269904119542622611e-01	3.258290758783738972e-01	3.243670263981822122e-01	3.225431095919250590e-01	3.210102950426094170e-01	3.203964892505528073e-01	3.211411025402632902e-01	3.234126242093687265e-01	3.270751469677374845e-01	3.317011818006277424e-01	3.366316350152623316e-01	3.410856063369934188e-01	3.443252386114442065e-01	3.458567891096329117e-01	3.456719652202870363e-01	3.445422849075346350e-01	3.436653494382164720e-01	3.432234328054394323e-01	3.428029941448280105e-01	3.418031841883767408e-01	3.396853863920973327e-01	3.361458143998088954e-01	3.312124081002139619e-01	3.252629553253820194e-01	3.190365227958544270e-01	3.134891254553308082e-01	3.094386915588845377e-01	3.072828087739096214e-01	3.066605033277235437e-01	3.068478662163157678e-01	3.087386905563612172e-01	3.132016409998906181e-01	3.205355566685016977e-01	3.305356394856445168e-01	3.425823845321986361e-01
2.351192414298423350e-01	2.306277190720469883e-01	2.261709799142276045e-01	2.216594942662205026e-01	2.169072286725153009e-01	2.117698851587757058e-01	2.063346396647910697e-01	2.007428261829448113e-01	1.933421991264099027e-01	1.827416266420133217e-01	1.686248344201993765e-01	1.513902818877601031e-01	1.318385274937658169e-01	1.116533309272773888e-01	9.313698696414583755e-02	7.833128687814677749e-02	6.878042167873835155e-02	6.533100050518457491e-02	6.794780427781053900e-02	7.554309520789499743e-02	8.601763307734118513e-02	9.878476739933685080e-02	1.140008482218941438e-01	1.309118036658354356e-01	1.482701024448056515e-01	1.647115064830567133e-01	1.790392208911909255e-01	1.903439352352508107e-01	1.980677888825395638e-01	2.021620940706848613e-01	2.030218013949022238e-01	2.013068763073666834e-01	1.976779816677716184e-01	1.924695461751338432e-01	1.866522085370526107e-01	1.819408066651236611e-01	1.791729923707976180e-01	1.784364428555176574e-01	1.792558748955523362e-01	1.808832099575845564e-01	1.825404899549344095e-01	1.835995686534499238e-01	1.837001914819517412e-01	1.828055919878337210e-01	1.811967164310518963e-01	1.794033112037210220e-01	1.780716333414842922e-01	1.771211758639462674e-01	1.754309215673710842e-01	1.729369486939082712e-01	1.703812988430445097e-01	1.687980966005306338e-01	1.691260742800030081e-01	1.719445813833165304e-01	1.773341902728214625e-01	1.848637723382897113e-01	1.936991845998471684e-01	2.028406933799898892e-01	2.114810930642386511e-01	2.194914504376450082e-01	2.279125154573838352e-01	2.379977909616857457e-01	2.498736820632452837e-01	2.628469874828426867e-01	2.758469687400156301e-01	2.877751000234939349e-01	2.977611257203456874e-01	3.053278665301491501e-01	3.104626383536649437e-01	3.135967441530007616e-01	3.155006448840145805e-01	3.170662811746609022e-01	3.189840646740861874e-01	3.213394931852388559e-01	3.234657361506853568e-01	3.248965112624775942e-01	3.255782489056150419e-01	3.256971132995177820e-01	3.255367531582753493e-01	3.253733418591402415e-01	3.254032867944579022e-01	3.257067026528945863e-01	3.262495254359777941e-01	3.269195597091985039e-01	3.275411023659114407e-01	3.278121759506862909e-01	3.274959016411306822e-01	3.268866725859129740e-01	3.266658995183965297e-01	3.273452180292047986e-01	3.291958324670224423e-01	3.322277462709402052e-01	3.362005717869890886e-01	3.406614082139785560e-01	3.450122068109690021e-01	3.486081598423161343e-01	3.508948937129148238e-01	3.515598390906503612e-01	3.507083263047731658e-01	3.490741806224449406e-01	3.478331112526267255e-01	3.474319929596710876e-01	3.476093851001498813e-01	3.477743655662011713e-01	3.472894711951080571e-01	3.456749836872022863e-01	3.427387018892333881e-01	3.386269615131302091e-01	3.338822802261867118e-01	3.293341153015132416e-01	3.257452780062513598e-01	3.235633949972343548e-01	3.226173616986406367e-01	3.225008728490971199e-01	3.243077031711555924e-01	3.289329534205877592e-01	3.365967973303239935e-01	3.469607743141324141e-01	3.592576380289345672e-01
2.405170884456573621e-01	2.363151863538270891e-01	2.323316599911690872e-01	2.284782437186466397e-01	2.245301543755129636e-01	2.202690380265808212e-01	2.156880731545616214e-01	2.108759830721760042e-01	2.043563124751821003e-01	1.948694126215941014e-01	1.821032808229059996e-01	1.663787245375425439e-01	1.483771544988669311e-01	1.296435680937803869e-01	1.123513922651403901e-01	9.844914003114796364e-02	8.943697855166765631e-02	8.617149861106933317e-02	8.867976833865760800e-02	9.597896618924763035e-02	1.060762937672254241e-01	1.181936622220013805e-01	1.322399726964956501e-01	1.474129450168271405e-01	1.625620311296563369e-01	1.765083943891821716e-01	1.882823550231430276e-01	1.972002575177261297e-01	2.028947206686743387e-01	2.054488231466068404e-01	2.053093416429439266e-01	2.030985380159017750e-01	1.993407755433131423e-01	1.941425614296156676e-01	1.882485307585047840e-01	1.832392922882856157e-01	1.798561030349867529e-01	1.781557145354110971e-01	1.776884732921252541e-01	1.777764556093576476e-01	1.777525911958403038e-01	1.771292178443918119e-01	1.756975709732016833e-01	1.735584477626513078e-01	1.710831305403033853e-01	1.688060078170665335e-01	1.672447521173946183e-01	1.660742625678283402e-01	1.640524563782494172e-01	1.611423709501872414e-01	1.581866925056152340e-01	1.563400009850881289e-01	1.566391670164601346e-01	1.597131214173412861e-01	1.656316703215179320e-01	1.738932905473820900e-01	1.835507719211528499e-01	1.934784769142855743e-01	2.027748537514640070e-01	2.113074821801482206e-01	2.202567244250855649e-01	2.309844212236799588e-01	2.435181855548596008e-01	2.569557900297749220e-01	2.700091447560838964e-01	2.814279506113430696e-01	2.903020689901669726e-01	2.962432836386888479e-01	2.994467161041421410e-01	3.006315896837736257e-01	3.008723260415018252e-01	3.012868258412151334e-01	3.025868152493384478e-01	3.045740125908210083e-01	3.064672996511654812e-01	3.079698205614043172e-01	3.092114674718236533e-01	3.105098005370909853e-01	3.121884604336741531e-01	3.144533131433857043e-01	3.173234719910243418e-01	3.206192455706994848e-01	3.240114575337665337e-01	3.271249680173271002e-01	3.296197036802630542e-01	3.311820272851974112e-01	3.318680583433694653e-01	3.322649486032452915e-01	3.330000161275488701e-01	3.344596246814264262e-01	3.367874729046282378e-01	3.399037294302921786e-01	3.435396199390552963e-01	3.472863001702982122e-01	3.506582764183416301e-01	3.531740541737442562e-01	3.544613158946583464e-01	3.543624910699146868e-01	3.530481394257110606e-01	3.511556805367945788e-01	3.497940904302176413e-01	3.496640457220369091e-01	3.506522067935338161e-01	3.521772190962383364e-01	3.535043747065984565e-01	3.539819789897267754e-01	3.532025062210930044e-01	3.510857981240609327e-01	3.479838820404923538e-01	3.446051932450851507e-01	3.416623078696772176e-01	3.396544934184345110e-01	3.385994139161567773e-01	3.383856040268309884e-01	3.402403266308112184e-01	3.450525692710914583e-01	3.529712502468168589e-01	3.635571880703213354e-01	3.759406283903267698e-01
2.487976912324106060e-01	2.446994631269747977e-01	2.409618382964775207e-01	2.375212218928424712e-01	2.341378364936790857e-01	2.305390393472963040e-01	2.266274549289494233e-01	2.224194505213339113e-01	2.166037256381387888e-01	2.080638398124671218e-01	1.965122650009088201e-01	1.822127084213265580e-01	1.657402043665556490e-01	1.485018596807355651e-01	1.325277840617100911e-01	1.196498055322723214e-01	1.112949070508335997e-01	1.082991494679434452e-01	1.107303120767880594e-01	1.177061307787295868e-01	1.273669684261822532e-01	1.387664866047630396e-01	1.515587711853879083e-01	1.648770100047467213e-01	1.776490261793705894e-01	1.888692452437897018e-01	1.977921821488956289e-01	2.039694692423669742e-01	2.072451923558905340e-01	2.078625941554634593e-01	2.063531427580113653e-01	2.033254569871733586e-01	1.991785411193652267e-01	1.937720418915261089e-01	1.876111002867652533e-01	1.821694909491760050e-01	1.781170084181446234e-01	1.754928382786064556e-01	1.738718016782240250e-01	1.726319854625402717e-01	1.711887659853431054e-01	1.691559974213356909e-01	1.664320762126935971e-01	1.632129084901083604e-01	1.599306035931307157e-01	1.571193102988347745e-01	1.552031613482805217e-01	1.537075709252549160e-01	1.513676379373998238e-01	1.481963951877137697e-01	1.451054414785736824e-01	1.433081351279372195e-01	1.438694174162707673e-01	1.474056222378848369e-01	1.539311554168295848e-01	1.628547461414839304e-01	1.731221539779906893e-01	1.835099953753163982e-01	1.930645655521658621e-01	2.016920414033408493e-01	2.107187612647659636e-01	2.215515704527613317e-01	2.341253267463193344e-01	2.474007403852566400e-01	2.599688738306982216e-01	2.705167266655072456e-01	2.781530338752625786e-01	2.825949531233177825e-01	2.842156410199410677e-01	2.839540260246333214e-01	2.830977185620677239e-01	2.829049943531785072e-01	2.840632138892194569e-01	2.861278452592198596e-01	2.882929033118575290e-01	2.904526436321681060e-01	2.928785103026704806e-01	2.959493045757343177e-01	2.999560851203311174e-01	3.049794678867810971e-01	3.108354462601739532e-01	3.170932839220106381e-01	3.231677469945005154e-01	3.284815781983435601e-01	3.325954761789565173e-01	3.352308484267575994e-01	3.367321270798544486e-01	3.378903139249179732e-01	3.392074660961872934e-01	3.409457325416014317e-01	3.431693728257775855e-01	3.457780583390106521e-01	3.485469078476217120e-01	3.511709363262576766e-01	3.533152791962029804e-01	3.546724015358657112e-01	3.550370258010270286e-01	3.543684735187827006e-01	3.528535627281013110e-01	3.509862214068366071e-01	3.497691581114378834e-01	3.501165651284908198e-01	3.520425322692637971e-01	3.549736706867851477e-01	3.580905374440275790e-01	3.605922362851542440e-01	3.618845651075685566e-01	3.616916229588298393e-01	3.602031591688820145e-01	3.580295796681299270e-01	3.558448634410696920e-01	3.541971836940891460e-01	3.532705252481136426e-01	3.531991935353809842e-01	3.552865015467190912e-01	3.603973326777702435e-01	3.686233742232079003e-01	3.794566083939097112e-01	3.919638930333783633e-01
2.599605049404784540e-01	2.558424007207706907e-01	2.521784613533802899e-01	2.489459992999772109e-01	2.459122548013238652e-01	2.427700198456027025e-01	2.393407145201552899e-01	2.355550557468341077e-01	2.302305672843517892e-01	2.223823571589535475e-01	2.117592932820913099e-01	1.985926534220261441e-01	1.833798852851808436e-01	1.674118030120158862e-01	1.525886459440740084e-01	1.406275621553553790e-01	1.328728264313962515e-01	1.301235152302905040e-01	1.324666301399478885e-01	1.391038574917476955e-01	1.483040138853836953e-01	1.589815191366443503e-01	1.705557596925479091e-01	1.820876327417138285e-01	1.925612334698072747e-01	2.011175737541141539e-01	2.072103219799748264e-01	2.106105323355175196e-01	2.113692681274738916e-01	2.098969972683419338e-01	2.068253966178350556e-01	2.027714320958272920e-01	1.980290391773032177e-01	1.922211165407192168e-01	1.856299398791131372e-01	1.796614827494071032e-01	1.749456131105639467e-01	1.715158065234627383e-01	1.689662154004143435e-01	1.667090559673892192e-01	1.642064962638571657e-01	1.611273331005735610e-01	1.574263003708028519e-01	1.533475124999400530e-01	1.493532634966879546e-01	1.459748035381226994e-01	1.435859212600759105e-01	1.416575894719361017e-01	1.389791087219091892e-01	1.356246221467859725e-01	1.325422116797452254e-01	1.309509456628008550e-01	1.318877383117769142e-01	1.359109951089939039e-01	1.429531982890850095e-01	1.523295590510201636e-01	1.628967431504774466e-01	1.733668568409793276e-01	1.827724433367288459e-01	1.910855845430084743e-01	1.997674799745969287e-01	2.102198751553366329e-01	2.223027655259258994e-01	2.349125472766018519e-01	2.466084636504663197e-01	2.560899368018024758e-01	2.625271389597556571e-01	2.657417953274567868e-01	2.662414006383894138e-01	2.651053891730097978e-01	2.637403665138036701e-01	2.634620355320412832e-01	2.649005693024747976e-01	2.674218500390765918e-01	2.702689072626711098e-01	2.735231850950065047e-01	2.775496238140258143e-01	2.827252157713479597e-01	2.892535603743509043e-01	2.970580517659447972e-01	3.057512582757209163e-01	3.146829563627757120e-01	3.230702407058461678e-01	3.302037824768515040e-01	3.356088106107066871e-01	3.390758849120678042e-01	3.412048957136026295e-01	3.428955205079218804e-01	3.444730672113419656e-01	3.460850593079712323e-01	3.477619647887661425e-01	3.494427169079042939e-01	3.510033187880277628e-01	3.522851102187200545e-01	3.531242549181395907e-01	3.533838757638246841e-01	3.529996696031881820e-01	3.520079234211674346e-01	3.505684089214113341e-01	3.490026418668553121e-01	3.481773145538923919e-01	3.491621738366697536e-01	3.520679876436823008e-01	3.563263252595336716e-01	3.610525906291967013e-01	3.653313274149587730e-01	3.684258117496603258e-01	3.699109083689338107e-01	3.698567176253622635e-01	3.688081436275913449e-01	3.674171861262978678e-01	3.662749742722007928e-01	3.656958754011727653e-01	3.659964035566040108e-01	3.685163766541089680e-01	3.740926728186727557e-01	3.827771617344699062e-01	3.940194907966180771e-01	4.068499693358632041e-01
2.730821184276424618e-01	2.688758357448377545e-01	2.651796848676952756e-01	2.620214967149926411e-01	2.591896298989064262e-01	2.563573054091363157e-01	2.532754179977342868e-01	2.497817550347374294e-01	2.447820405359402429e-01	2.373990884011976110e-01	2.274220418261441445e-01	2.150707367369435463e-01	2.007925818505795768e-01	1.857920217451664302e-01	1.718624398540500309e-01	1.606220177655847681e-01	1.533379449405481987e-01	1.507671918581159343e-01	1.530006394355183652e-01	1.593027406807830670e-01	1.680524807875125592e-01	1.780492073309734857e-01	1.885070074199801105e-01	1.984147055349311795e-01	2.067941440434205858e-01	2.129043492512240621e-01	2.163687646864216052e-01	2.171508636302414974e-01	2.154913170584571436e-01	2.119612145526283409e-01	2.072961248987124638e-01	2.021356143789738713e-01	1.966883168113133518e-01	1.903638113495227657e-01	1.832512789800066211e-01	1.767253317153478775e-01	1.714009958107602094e-01	1.673124224406560556e-01	1.640652712413984693e-01	1.610847912419563766e-01	1.578479921855487633e-01	1.540393625520930787e-01	1.496282599987533712e-01	1.448715048441490405e-01	1.402374498247981605e-01	1.362560810666499367e-01	1.332869993213353088e-01	1.308185689982307720e-01	1.277411275597580276e-01	1.241927616945433521e-01	1.211348040786135172e-01	1.197579036976110789e-01	1.210391284846947385e-01	1.254549821267529341e-01	1.328475018208874481e-01	1.424440908007153783e-01	1.530317612460231347e-01	1.632851991381786549e-01	1.722481715936328428e-01	1.799693009928031995e-01	1.880237911857279010e-01	1.977772096812368263e-01	2.090338464945029062e-01	2.206789175014852722e-01	2.312998673618076040e-01	2.396568362718163314e-01	2.450029443673663876e-01	2.472551565658084594e-01	2.470144855900350822e-01	2.454374728392462457e-01	2.439777989034138672e-01	2.439508397440340037e-01	2.459133880885411017e-01	2.490955060367159024e-01	2.528360512611961264e-01	2.573891198324826934e-01	2.631746164585558878e-01	2.705267301045980455e-01	2.795313290713016263e-01	2.899446912250006614e-01	3.011901477239887770e-01	3.124345581116994008e-01	3.227490845436623013e-01	3.313481628324508876e-01	3.377663388415451107e-01	3.418807707747892333e-01	3.445066626391382614e-01	3.465783443632691196e-01	3.482168597395793319e-01	3.494674748748044513e-01	3.503589796230599518e-01	3.509081662497477438e-01	3.511255830435823233e-01	3.510203834782415488e-01	3.506053061379271751e-01	3.499025046083381052e-01	3.489645786721448095e-01	3.478728525841781605e-01	3.467320028541402421e-01	3.456789501924626973e-01	3.454279924557941972e-01	3.471520710170075685e-01	3.510290574842505618e-01	3.564932562872377697e-01	3.626130181574406253e-01	3.683907997128424427e-01	3.729884260863538525e-01	3.758748650407482406e-01	3.770399932700174706e-01	3.769928419835839040e-01	3.763784586509261731e-01	3.758246516994295794e-01	3.757430223288093507e-01	3.765779172011641251e-01	3.796855868967588532e-01	3.858810937616461434e-01	3.951909174875370967e-01	4.070393808590404006e-01	4.204334518490234762e-01
2.860882673825554945e-01	2.817262884712870563e-01	2.779311929024836925e-01	2.747837709783450544e-01	2.720975097756919703e-01	2.695301347609265208e-01	2.667639768094565156e-01	2.635419322808582043e-01	2.588483796826011041e-01	2.519054481039451066e-01	2.425401586863631942e-01	2.309610798658013608e-01	2.175691337893506661e-01	2.034868414457083607e-01	1.904067454998690234e-01	1.798533134049135063e-01	1.730188286953553978e-01	1.706185263691961940e-01	1.727463167075739825e-01	1.787249952162203170e-01	1.870384851262590908e-01	1.963800408942333597e-01	2.057711779779627936e-01	2.141336389721782418e-01	2.205245289121183783e-01	2.243134131952117805e-01	2.252833544952927147e-01	2.235793917821856935e-01	2.196220835834193086e-01	2.141344671436062330e-01	2.079514918200636164e-01	2.017352806694763523e-01	1.956148322887476254e-01	1.887990904062442354e-01	1.812002252626284116e-01	1.741735176058348544e-01	1.683267798820596572e-01	1.636932043303776230e-01	1.598806517796314275e-01	1.563165288632998584e-01	1.524801118990363191e-01	1.480576982675089470e-01	1.430204981146023513e-01	1.376267047799875354e-01	1.323462401670988386e-01	1.277099621612833302e-01	1.240784304495096552e-01	1.209806770170659962e-01	1.174166194826892495e-01	1.135868496838346592e-01	1.104608076589293636e-01	1.091953181289776753e-01	1.107045079986104102e-01	1.153844611502603673e-01	1.229920874758250182e-01	1.326776830901778559e-01	1.431694817957023247e-01	1.531151014444617209e-01	1.615733252085357341e-01	1.686628431299475039e-01	1.760503502075441151e-01	1.850476917772602425e-01	1.954060895009221144e-01	2.060134835026072031e-01	2.155022794328856350e-01	2.227061285993310880e-01	2.269671359783385356e-01	2.282933435503534669e-01	2.273670991900919314e-01	2.254031560305481963e-01	2.238821538210739870e-01	2.241033627682894047e-01	2.265492799049433625e-01	2.303367039910452774e-01	2.349205456690775240e-01	2.407263760831065691e-01	2.482197801335622456e-01	2.576810284668672457e-01	2.690705650003421545e-01	2.819758078049490746e-01	2.956360814240712731e-01	3.090470318553960594e-01	3.211491009327389623e-01	3.310945462296188135e-01	3.384368525824346663e-01	3.431448654897042982e-01	3.462349583364389694e-01	3.486550496009303557e-01	3.503194235403805368e-01	3.511778886074559125e-01	3.512677234134087834e-01	3.506935390859864388e-01	3.496068365115501675e-01	3.481858904869691851e-01	3.466154704166268807e-01	3.450678032665696615e-01	3.436996640675160086e-01	3.426253949614921912e-01	3.418863500349357820e-01	3.414363042457733699e-01	3.418343495868514381e-01	3.443313300302369706e-01	3.491594277945664349e-01	3.557552683689512163e-01	3.631496405518062631e-01	3.702797497701824092e-01	3.762256174344905668e-01	3.803706917105706409e-01	3.826423114526083524e-01	3.835247172121483139e-01	3.836620084203239966e-01	3.837149242157761320e-01	3.841781226748542388e-01	3.855996571370288173e-01	3.893454656088737864e-01	3.962123579740485790e-01	4.062078204663825409e-01	4.187378580261362226e-01	4.327913223761894468e-01
2.969715078517189411e-01	2.923127166594528537e-01	2.883211047283794071e-01	2.851266077967545276e-01	2.825582302586815420e-01	2.802483947640386774e-01	2.778036545025718840e-01	2.748823887602317440e-01	2.705983015511650991e-01	2.642996001675521622e-01	2.558388700952092254e-01	2.453784983159787714e-01	2.332270658627301485e-01	2.203807975813907305e-01	2.083972877821612668e-01	1.986841445708350251e-01	1.923522727421322631e-01	1.900831048234011555e-01	1.919943283333573059e-01	1.974974402964679299e-01	2.052109200069217598e-01	2.137294041393751620e-01	2.218931911668107215e-01	2.285848816869939237e-01	2.329287497967710840e-01	2.344294400122743649e-01	2.330392017124841564e-01	2.290775565107132650e-01	2.231216091283670100e-01	2.160098177543390841e-01	2.086347768361323241e-01	2.016445305161556623e-01	1.950731645868666875e-01	1.879515223316425565e-01	1.800486528919964246e-01	1.727008544549738511e-01	1.665066334351984201e-01	1.614926002882908218e-01	1.572630634235473446e-01	1.532447538609134075e-01	1.489185606729285238e-01	1.439738106041685006e-01	1.383860508035224257e-01	1.324178552016357646e-01	1.265436788508118859e-01	1.212976487341399789e-01	1.170426782889629619e-01	1.133322523516799435e-01	1.092298833891041376e-01	1.049670671093460850e-01	1.015111949162478960e-01	9.999490020752233033e-02	1.012958267569983722e-01	1.057695652230766920e-01	1.131354526676055516e-01	1.225135351543515383e-01	1.326151779413488885e-01	1.420857105122414754e-01	1.499988885067676803e-01	1.565045237774555231e-01	1.632858965456969735e-01	1.715583047941100503e-01	1.810093099544897999e-01	1.905323878230903711e-01	1.988145379827749026e-01	2.047755851575988328e-01	2.078582135644890527e-01	2.081700201071305101e-01	2.064780440857445221e-01	2.040545747535863208e-01	2.024024381366840153e-01	2.027990450747555462e-01	2.056492624261674340e-01	2.099626189570183432e-01	2.153422897893872978e-01	2.224045434356299311e-01	2.316551093164490871e-01	2.433003110873411257e-01	2.571511513108428182e-01	2.726048519512808688e-01	2.887023904950329345e-01	3.042626637218634467e-01	3.180985314777062811e-01	3.293082894293506424e-01	3.374764352537756862e-01	3.426803593915293544e-01	3.461449818695839231e-01	3.488472071662109819e-01	3.505279156973791777e-01	3.510634592894899542e-01	3.505086171237083437e-01	3.490507193976491451e-01	3.469646645404454999e-01	3.445702901781919625e-01	3.421905395798381377e-01	3.401121671023284443e-01	3.385650883898647656e-01	3.376776591167944264e-01	3.374289897485453493e-01	3.376208748890141553e-01	3.386702443672356400e-01	3.418490714236833705e-01	3.474179031484026514e-01	3.548237389673399855e-01	3.630908512774108643e-01	3.711341284650801486e-01	3.779998548520602242e-01	3.830306475733923355e-01	3.861252299810261635e-01	3.877626774520739339e-01	3.885877977221798840e-01	3.892780895044091194e-01	3.903729430292157132e-01	3.924711480330274616e-01	3.969159658810806901e-01	4.044789036405108118e-01	4.151576293549285590e-01	4.283565297612120237e-01	4.430666577747208179e-01
3.047433736478467048e-01	2.996927701941974886e-01	2.954639089429873522e-01	2.922171064474889390e-01	2.897768121589514023e-01	2.877320133152530546e-01	2.856099765889013598e-01	2.830132668703968513e-01	2.792725690880220046e-01	2.739022478751954592e-01	2.667579616696110212e-01	2.578981183509276298e-01	2.474652505807007352e-01	2.362621833824351814e-01	2.256592135596943716e-01	2.169177115792749744e-01	2.110621037036262138e-01	2.087590243443170623e-01	2.101886443749071132e-01	2.148979758182660571e-01	2.216825523022947775e-01	2.290528203377980576e-01	2.356993973091402739e-01	2.405207280411435500e-01	2.427627624486152214e-01	2.421030585242595345e-01	2.386719225040765668e-01	2.329406711065372670e-01	2.255893856319231283e-01	2.174973444029341674e-01	2.095327761919021370e-01	2.022626079292619561e-01	1.956025622752222970e-01	1.884575568681346180e-01	1.805192068209942324e-01	1.730996843795099827e-01	1.667842016274876105e-01	1.615881015303300416e-01	1.571107888507203565e-01	1.527825252341654672e-01	1.480926994073343828e-01	1.427428427463733607e-01	1.367217749370044921e-01	1.303043617173834379e-01	1.239740372616119496e-01	1.182682412384911397e-01	1.135452667605551524e-01	1.093466555604519358e-01	1.047177875095185173e-01	9.986330812641033838e-02	9.572702772325648868e-02	9.342902636244007630e-02	9.385139379071934240e-02	9.737277870256920431e-02	1.037518345086829441e-01	1.121599539013630326e-01	1.213618102258249148e-01	1.300467568153060027e-01	1.373064203772015601e-01	1.432632831069156343e-01	1.494981934965877168e-01	1.570674188206751809e-01	1.655847478719263410e-01	1.739583020044799810e-01	1.809495290537792844e-01	1.855850660641065741e-01	1.874251758011795665e-01	1.866866866212392728e-01	1.842218523056510515e-01	1.813530882730489957e-01	1.795919817314100553e-01	1.801801360031836663e-01	1.834373560234869305e-01	1.882769501148761071e-01	1.944891293782481101e-01	2.028946988746893887e-01	2.140181308519573944e-01	2.279554278137451151e-01	2.443309486355003946e-01	2.623243677238056848e-01	2.807670044298453682e-01	2.983079368026742006e-01	3.136538661875477030e-01	3.258795071595420034e-01	3.346307292572479053e-01	3.401180187872867577e-01	3.437697862140840499e-01	3.466114603233965696e-01	3.482755291470575054e-01	3.486077566535946137e-01	3.476960924692628629e-01	3.457987626247106538e-01	3.432791055399873614e-01	3.405443418238339737e-01	3.379899887150745741e-01	3.359494723894184132e-01	3.346677463406809716e-01	3.342521459447278520e-01	3.346241474737938204e-01	3.354945338506353791e-01	3.371705021900775479e-01	3.408512556168547536e-01	3.467833930706460954e-01	3.544393584548238829e-01	3.628891697407082284e-01	3.710998683207429316e-01	3.781642795714953986e-01	3.834588013046751342e-01	3.869106089195806231e-01	3.890246145624792207e-01	3.904490694186367183e-01	3.918476548146617722e-01	3.937392746351577877e-01	3.966814408090624799e-01	4.019306201565592818e-01	4.102160176200009278e-01	4.215389735294617357e-01	4.353340756364606490e-01	4.506330008442989699e-01
3.092026409079199900e-01	3.038287890695319793e-01	2.994675075657818875e-01	2.962774130191163646e-01	2.940478447710345722e-01	2.923069630474267599e-01	2.905084798216031605e-01	2.882493807239177031e-01	2.851672099907113789e-01	2.809738293469955517e-01	2.755003136154434151e-01	2.686383902788366251e-01	2.602927324470155623e-01	2.510085166534377077e-01	2.419266144221259573e-01	2.341423042605932925e-01	2.286002900343516719e-01	2.259817863308998254e-01	2.265735366101897241e-01	2.301039442318077999e-01	2.355748228911813125e-01	2.414337434525420656e-01	2.462734029258860646e-01	2.490770247374805568e-01	2.492727129283226484e-01	2.467441747947333452e-01	2.417975286492829168e-01	2.350137149547273652e-01	2.271004061962914600e-01	2.188784074350615394e-01	2.110895205366899452e-01	2.041407917580379539e-01	1.978089199293351919e-01	1.909490452273134298e-01	1.832601709258651346e-01	1.760170272045596396e-01	1.697818334930832340e-01	1.645565294560962233e-01	1.599400403886128974e-01	1.553779926955280166e-01	1.503849471561246876e-01	1.446934479871293533e-01	1.383227174832654949e-01	1.315729895811675598e-01	1.249429106564304698e-01	1.189698332019156063e-01	1.139914332203968983e-01	1.094891882220074830e-01	1.044024285473306446e-01	9.884849301132284105e-02	9.372128370058377400e-02	9.013809104742327716e-02	8.902437482864479501e-02	9.084652632212120160e-02	9.548258638808723719e-02	1.022400293608565214e-01	1.100125925645025621e-01	1.175838229352051817e-01	1.240692769758317826e-01	1.295056993450035832e-01	1.352491553741133612e-01	1.421398467708506197e-01	1.497140411235060864e-01	1.569089547561231257e-01	1.625803598709970321e-01	1.658818216807433910e-01	1.665037784231703233e-01	1.647754718288771125e-01	1.616278973468438518e-01	1.584179484798913518e-01	1.566470782329960065e-01	1.575037343993207217e-01	1.612178217260748780e-01	1.666237107223354774e-01	1.737235154046423702e-01	1.835317893602637362e-01	1.965578798114035741e-01	2.127484350829108584e-01	2.315112254278268167e-01	2.517965871491331664e-01	2.722360105500322147e-01	2.913391793518556039e-01	3.077521858277202926e-01	3.205748294293768175e-01	3.295537550818124495e-01	3.350502634674840108e-01	3.386648721499461168e-01	3.414791512201798551e-01	3.430998718077805654e-01	3.433952565827642078e-01	3.425031633969151112e-01	3.407362814492651548e-01	3.384999134778797769e-01	3.362195434508857272e-01	3.342806306830540253e-01	3.329795079877134190e-01	3.325050311414251003e-01	3.329020957531805269e-01	3.340421500027678237e-01	3.356229549069374984e-01	3.378913273452180399e-01	3.418773164281750931e-01	3.477705952068053108e-01	3.550860949581359227e-01	3.629969954812351518e-01	3.706011129752233013e-01	3.771224399150732154e-01	3.820483817748236977e-01	3.853925488980743386e-01	3.877165831739103341e-01	3.896720811642869764e-01	3.918753004845674792e-01	3.947559640329507680e-01	3.987315355911030257e-01	4.048914092906014117e-01	4.138959537723426729e-01	4.257640099363136366e-01	4.399987838956399555e-01	4.557216783896511636e-01
3.107888289263716630e-01	3.053626497301250575e-01	3.011441406217649774e-01	2.982468700568517983e-01	2.963904366250532108e-01	2.950263729011847746e-01	2.935549084194958303e-01	2.916338558223284805e-01	2.892765094405004844e-01	2.864035609627885171e-01	2.827910336058889196e-01	2.781139354662670593e-01	2.719845733456948689e-01	2.646503743552794385e-01	2.570009035786159357e-01	2.499670910827295200e-01	2.444342739181356861e-01	2.411345774211700599e-01	2.405013531885253908e-01	2.424756484909190990e-01	2.462717247890451322e-01	2.502981853020493919e-01	2.531173680188962827e-01	2.538672554529640135e-01	2.522103241593733336e-01	2.482573747575964052e-01	2.424716601916737380e-01	2.354868405739489468e-01	2.279503716092373400e-01	2.205190586218965798e-01	2.137041013228513087e-01	2.076781734548391600e-01	2.020673992060887103e-01	1.957678260630778821e-01	1.885745033913620028e-01	1.817022497058901620e-01	1.756771282153210822e-01	1.704861279106411609e-01	1.657382211139254435e-01	1.609132507864359518e-01	1.555762525765938820e-01	1.495163696800337894e-01	1.428074837057271562e-01	1.357932204143385280e-01	1.289951970415973148e-01	1.229439227690914266e-01	1.179322215785732070e-01	1.133290704298776375e-01	1.078986632005513036e-01	1.016196417853458128e-01	9.531333430098626325e-02	9.009676965196314335e-02	8.696859181653300574e-02	8.653149165442934609e-02	8.884684102726383981e-02	9.342610596845712934e-02	9.935507239743859853e-02	1.055539355360078091e-01	1.111707249246037116e-01	1.161102880249462732e-01	1.214084057656423105e-01	1.276524260410223932e-01	1.343079603401779454e-01	1.403562706307310004e-01	1.447649322577565789e-01	1.468258586503159435e-01	1.463639569333422263e-01	1.438141914584142311e-01	1.401710217586786822e-01	1.368048536076237054e-01	1.351840349470907476e-01	1.364280356078843570e-01	1.406769473252460212e-01	1.467105684699445689e-01	1.547396468764206945e-01	1.659333208671739390e-01	1.807433579561775194e-01	1.989358650969766940e-01	2.196907346360034152e-01	2.417414745199983894e-01	2.635568611605471068e-01	2.835629111707685390e-01	3.004107294403173811e-01	3.132857657817872954e-01	3.220765221681876622e-01	3.272983609615680578e-01	3.306633522374358702e-01	3.332995308626800490e-01	3.348723373743739962e-01	3.353260772439849435e-01	3.348636197803950831e-01	3.338321104728379507e-01	3.326285594481065422e-01	3.316246849134626418e-01	3.311113711859981490e-01	3.312630137332616687e-01	3.321416818243831948e-01	3.336899374120340100e-01	3.357394655504659098e-01	3.380551200390897182e-01	3.408842299160800837e-01	3.450126644846528978e-01	3.505401530199271365e-01	3.570404160733254284e-01	3.638380580513300711e-01	3.702263109190915835e-01	3.756286474958057675e-01	3.797046457365952921e-01	3.825991266714351968e-01	3.849521905352210616e-01	3.874159569455468688e-01	3.905296199870020857e-01	3.945786263774343494e-01	3.997585444407685262e-01	4.069091509019876485e-01	4.165894941659681883e-01	4.288466601371887510e-01	4.432898990110325510e-01	4.591821109740996110e-01
3.104493876108169736e-01	3.054256997285776931e-01	3.017727663235857394e-01	2.995112262995862085e-01	2.982551517711317657e-01	2.973716890033218374e-01	2.962373774687681038e-01	2.946433872037053092e-01	2.930143957988171066e-01	2.914686574164276900e-01	2.896991601905840596e-01	2.871328530810810520e-01	2.830664659876532818e-01	2.774391718983127419e-01	2.708962471193800403e-01	2.642258493224903804e-01	2.582868358664481834e-01	2.538990528770021515e-01	2.516733203702710697e-01	2.517737906408782922e-01	2.536055532817164671e-01	2.555619993104383258e-01	2.562491854498125665e-01	2.550213777198348519e-01	2.518109493852134784e-01	2.469577994351870864e-01	2.410501693174690596e-01	2.347115631474175623e-01	2.284430246389717312e-01	2.226411825241880471e-01	2.174977149006782629e-01	2.128934740527353431e-01	2.083052517837286899e-01	2.027603389574891002e-01	1.962285944928343628e-01	1.898357430942489710e-01	1.840551937027588014e-01	1.788592461634958553e-01	1.738805410661878881e-01	1.686565882562676144e-01	1.628326252467623969e-01	1.562849493791111655e-01	1.491699760832809196e-01	1.418942285604942177e-01	1.350098574193916712e-01	1.290327262836766242e-01	1.241809493547019055e-01	1.196654100254946063e-01	1.140331469075860915e-01	1.070950753875733324e-01	9.958247083637904173e-02	9.261005199608929317e-02	8.726141579828533557e-02	8.430052859131091647e-02	8.400683285016068147e-02	8.613584365169550672e-02	9.000279398887024718e-02	9.469299031344545481e-02	9.939425798237389031e-02	1.038558789928214904e-01	1.087412186586150936e-01	1.143775790456937058e-01	1.201755200371718152e-01	1.251760627073970067e-01	1.284685671893300019e-01	1.294855617029122552e-01	1.281788815414101057e-01	1.250740668578435022e-01	1.212064191131504431e-01	1.179352291484959264e-01	1.166737061238046491e-01	1.184589386067802785e-01	1.233472422545267150e-01	1.300899524934716056e-01	1.390754817233462726e-01	1.515619966951601283e-01	1.678989203695736843e-01	1.876539254671867607e-01	2.097897926563860038e-01	2.328615589411784648e-01	2.552354164460025610e-01	2.753281847223293943e-01	2.918731973650200429e-01	3.042068057384433866e-01	3.123946097372909403e-01	3.170935454498300388e-01	3.200446035695931890e-01	3.223945835845090091e-01	3.239416949879501129e-01	3.247510582069391138e-01	3.251009824292534489e-01	3.253523324576509945e-01	3.258484289370071063e-01	3.268431282039881980e-01	3.284596098615166770e-01	3.306778888253957271e-01	3.333745566558611872e-01	3.363584365169550727e-01	3.394320531110695538e-01	3.424977475916556879e-01	3.458663348750398159e-01	3.500401227262880388e-01	3.550118428514204005e-01	3.604268308363964834e-01	3.657915074071216854e-01	3.706336404977571553e-01	3.746160880581603236e-01	3.776039126305296145e-01	3.798961167913500470e-01	3.822198023634268971e-01	3.852220763478163001e-01	3.893457053427082371e-01	3.947001605344931385e-01	4.012090431089381237e-01	4.093903742942562873e-01	4.196686900202291626e-01	4.321242084969516561e-01	4.465033839520427539e-01	4.622552807915226714e-01
3.092970524507118180e-01	3.052422597572760354e-01	3.026637698101874441e-01	3.014416067223110729e-01	3.010553955150594430e-01	3.007849975438178780e-01	3.000196581744224988e-01	2.987524469196599641e-01	2.978139979278279226e-01	2.974868920077534118e-01	2.973594843717513592e-01	2.966053035226489665e-01	2.942137841724235536e-01	2.898364622957522174e-01	2.839051203224114972e-01	2.771012125737344900e-01	2.702968689453585371e-01	2.644311050727243262e-01	2.603080754124184604e-01	2.583030287972640782e-01	2.579695372396000330e-01	2.577058300217373032e-01	2.562319464077192355e-01	2.531630482113458869e-01	2.487160727587828801e-01	2.434470717819764707e-01	2.380295665917389336e-01	2.330181269290400869e-01	2.286983411726297155e-01	2.251358310111842287e-01	2.221445194012233448e-01	2.192808115731290641e-01	2.158858535679586688e-01	2.111939791065425009e-01	2.054049954428777414e-01	1.995232565792771362e-01	1.939484424056897860e-01	1.886364636905672465e-01	1.832562262145896737e-01	1.774266621509529851e-01	1.709008238562189919e-01	1.636725872206174492e-01	1.560074029808068974e-01	1.483949383905839581e-01	1.414262681157051338e-01	1.355944592716188668e-01	1.310154558582449502e-01	1.267080926732545576e-01	1.210004223674282786e-01	1.135314929620684365e-01	1.049357709469617289e-01	9.631829853487756943e-02	8.884243864230448318e-02	8.343147164755115863e-02	8.058434904200180438e-02	8.030525527076629033e-02	8.214601882738771510e-02	8.536446734846969697e-02	8.919340897589628225e-02	9.322625512649010404e-02	9.775029410982685740e-02	1.028553607318594548e-01	1.079205007734685279e-01	1.120584375194783738e-01	1.144806645944945744e-01	1.147509535958113752e-01	1.129303712692511785e-01	1.096107550700436833e-01	1.058422263688910958e-01	1.029478108160060273e-01	1.022664436706126889e-01	1.047455530463414219e-01	1.103680088710236318e-01	1.178828799966524371e-01	1.278023250694901303e-01	1.413944053097121456e-01	1.588677327412343632e-01	1.795919817314100553e-01	2.023454032780768741e-01	2.255630367041218109e-01	2.475839188287389525e-01	2.668979444349277586e-01	2.823966496542820170e-01	2.936241697036584553e-01	3.008465437573091816e-01	3.048359327019179998e-01	3.072724566310596761e-01	3.092804890221518277e-01	3.108430959488904799e-01	3.121761032442090245e-01	3.136370630251533176e-01	3.155828953832058303e-01	3.182679361227018777e-01	3.217820200495943861e-01	3.260289703083107948e-01	3.307459514403862655e-01	3.355849135062119459e-01	3.402015006466275193e-01	3.443787537414823574e-01	3.482052435456023942e-01	3.521102897684650901e-01	3.563138917911212178e-01	3.607034074023705572e-01	3.650024234911261600e-01	3.689082542974469470e-01	3.721913001899128104e-01	3.747589476294900246e-01	3.766847404183835124e-01	3.784186589638006137e-01	3.807676037644314171e-01	3.843651150657023119e-01	3.895503290673787422e-01	3.962539735883054970e-01	4.041174504001593393e-01	4.132882829870487273e-01	4.240279664773641266e-01	4.364505487943349804e-01	4.504602072346440833e-01	4.657253681113027732e-01
3.083007404288445885e-01	3.057799173659266900e-01	3.047707904809104362e-01	3.049766128747530280e-01	3.057236452967926899e-01	3.062094986032234956e-01	3.058711251929312480e-01	3.049529881950701071e-01	3.046498338644527681e-01	3.053580294053162558e-01	3.065500078240405712e-01	3.071628546807595450e-01	3.059179386725981442e-01	3.022248389533482293e-01	2.963480691183156268e-01	2.889083218588002766e-01	2.808270904463451845e-01	2.731840271012561661e-01	2.669754438454004508e-01	2.627578500844081066e-01	2.601750231343150088e-01	2.576457222112525924e-01	2.540593040483198894e-01	2.493130753884451045e-01	2.439021737756466301e-01	2.385715394094091724e-01	2.340424006335947438e-01	2.307572189306040245e-01	2.287455033560557294e-01	2.277091557838402947e-01	2.270641627993240375e-01	2.260424825789781322e-01	2.238720196180734867e-01	2.200430126086920513e-01	2.150068803610478696e-01	2.096142421076352680e-01	2.041701700497469407e-01	1.986079092114892697e-01	1.926393213178735631e-01	1.859810191826296588e-01	1.785162960163646784e-01	1.703811026971799869e-01	1.619723076909665160e-01	1.538792857326549413e-01	1.467406005812020020e-01	1.410216409911730084e-01	1.367161085009181709e-01	1.326391077368210547e-01	1.269335732415196316e-01	1.190910513461926612e-01	1.096549096835469778e-01	9.971170916711671883e-02	9.048326418101909629e-02	8.302444718467481832e-02	7.802242252347321716e-02	7.570001189951577891e-02	7.582144798364230665e-02	7.780195457174601814e-02	8.092006358613047790e-02	8.463310480160717020e-02	8.889583390542543651e-02	9.360756268712860928e-02	9.814036285241418966e-02	1.016835853371812759e-01	1.035612243163335916e-01	1.034475468908483131e-01	1.014857395418294200e-01	9.830617148989347076e-02	9.494641077041300614e-02	9.267290584867739212e-02	9.273815703960969214e-02	9.599884230351959924e-02	1.023799031562484946e-01	1.106501973881216655e-01	1.213819914558861429e-01	1.357756108745010737e-01	1.538765396905515670e-01	1.748757198008378533e-01	1.974176961055456592e-01	2.198877522599272660e-01	2.406758576259986626e-01	2.584199317325215350e-01	2.722311069034190623e-01	2.818984391583860272e-01	2.878921337226610921e-01	2.910651853730977789e-01	2.929548982199108864e-01	2.946176920954524103e-01	2.962438066943275938e-01	2.982092972268026165e-01	3.009484088429529858e-01	3.048009751500624920e-01	3.099138658126911472e-01	3.161910347391761467e-01	3.232950238665929232e-01	3.307008814795152074e-01	3.378232538332350265e-01	3.441597459867466458e-01	3.494797666823147297e-01	3.540771751159766945e-01	3.585369981226661507e-01	3.628374635114207103e-01	3.667796357876411673e-01	3.701655928770283266e-01	3.728692783706468172e-01	3.748807760053456395e-01	3.763245948171288768e-01	3.774545584516855734e-01	3.788445897086187841e-01	3.813570547783093900e-01	3.856005615874041337e-01	3.918165003131795499e-01	3.997829972918794383e-01	4.088901478547526946e-01	4.188983489312883557e-01	4.298890119522572051e-01	4.420075518337240883e-01	4.553245157049635172e-01	4.697450234525071822e-01
3.082872717461471734e-01	3.077510307465181061e-01	3.086935116255654088e-01	3.106223228813740356e-01	3.127048035250463154e-01	3.140672109060587691e-01	3.142222097270042092e-01	3.136894993529366071e-01	3.139547757377155190e-01	3.154697628073442339e-01	3.175902303667796911e-01	3.190558540605027416e-01	3.183812212564581245e-01	3.147977016935233907e-01	3.084568725370072650e-01	2.999645193925057352e-01	2.903201144097034003e-01	2.807508986749693292e-01	2.724268604762160040e-01	2.660418767061966117e-01	2.612693427064903817e-01	2.565542794450902941e-01	2.509859598790172286e-01	2.447371667209336799e-01	2.385537991056620455e-01	2.333357742596474382e-01	2.298197506680945967e-01	2.283163579984578695e-01	2.285945582163105283e-01	2.300034521672156551e-01	2.315855429164972168e-01	2.322783519039879063e-01	2.312238935302812215e-01	2.281819980812575532e-01	2.238407016617041667e-01	2.188718910335623047e-01	2.134669609726393968e-01	2.075268578173498357e-01	2.008076414941781795e-01	1.931306013265562671e-01	1.845214542167220029e-01	1.752714331855265151e-01	1.659223802867303699e-01	1.571753208401494017e-01	1.497222356618462813e-01	1.440009659094128591e-01	1.398732723363282637e-01	1.359600751630952731e-01	1.302868393534857838e-01	1.222452511996499069e-01	1.123041864937444761e-01	1.015210022094741871e-01	9.114392704071247464e-02	8.231073776561964594e-02	7.583805500017216927e-02	7.210753500876772304e-02	7.104294243206052406e-02	7.218377036811347847e-02	7.484921831514189383e-02	7.839836876381466035e-02	8.253591321809546077e-02	8.703236101648889611e-02	9.127512683009540717e-02	9.452761755566510549e-02	9.620645180412787378e-02	9.606867023129084249e-02	9.430924182649284837e-02	9.156834310357678253e-02	8.884989218515645937e-02	8.735042243281022911e-02	8.823329676302658908e-02	9.227194011361640469e-02	9.934971107714155036e-02	1.082707301115721221e-01	1.196042996917022899e-01	1.344227274649106019e-01	1.526047081109802028e-01	1.731986726591407677e-01	1.947753933705313190e-01	2.157393761951276467e-01	2.345988446572699615e-01	2.501943151697904044e-01	2.618915827707216093e-01	2.697337123743195342e-01	2.743788823259935561e-01	2.767248740416640151e-01	2.781072229189032741e-01	2.794719404623201564e-01	2.812041263859340057e-01	2.838290811089302368e-01	2.878478701392330752e-01	2.935784677172239010e-01	3.010608440112962358e-01	3.100195666396857175e-01	3.198879484057918221e-01	3.298939591868402799e-01	3.392296414758712020e-01	3.472449678778455895e-01	3.536974258252619241e-01	3.590714956034994354e-01	3.641211401218109600e-01	3.686552479261933635e-01	3.724216408168211090e-01	3.752940771358868055e-01	3.772892292818751381e-01	3.785664112847510476e-01	3.794109935834149572e-01	3.802039786227160434e-01	3.815961129991966572e-01	3.844681243355558831e-01	3.893916579599696615e-01	3.965281964039052975e-01	4.055533362014217547e-01	4.156734166996845503e-01	4.262796447231749775e-01	4.372712176430154085e-01	4.488192018955536322e-01	4.611561719911551060e-01	4.744219635857381823e-01
3.098487017976986335e-01	3.115484800656957987e-01	3.146388453372422900e-01	3.184335050263467637e-01	3.219516426344394833e-01	3.242638972614114157e-01	3.249736619691911410e-01	3.248686803436998671e-01	3.256326684860285092e-01	3.277170234124062720e-01	3.303714000150814178e-01	3.321911323762287149e-01	3.315596516623797729e-01	3.275993576876756186e-01	3.204037030595703883e-01	3.106017929475536343e-01	2.992862034050050579e-01	2.878227852625586669e-01	2.775229043884803737e-01	2.691671123536588661e-01	2.624034363011946147e-01	2.556994321795161840e-01	2.483435699680630881e-01	2.407503494665486354e-01	2.338721896111560783e-01	2.287260849154676701e-01	2.260462529383740204e-01	2.260182694617016430e-01	2.281843300376469319e-01	2.315956335315278447e-01	2.349847507487323461e-01	2.370526076285049688e-01	2.368852080301245278e-01	2.344846223821610010e-01	2.307255740644605091e-01	2.260873999819545677e-01	2.206353295315905960e-01	2.142272659315119787e-01	2.066566675863728275e-01	1.978465581413392238e-01	1.879633346714840170e-01	1.774549071554447355e-01	1.670107283070301762e-01	1.574458277813156615e-01	1.495097878965797045e-01	1.436166507788516344e-01	1.394992875546320621e-01	1.356168634881447232e-01	1.299659883070911903e-01	1.219009934134218653e-01	1.118418924850416996e-01	1.008076414941781740e-01	9.003374144749545782e-02	8.067775806148606843e-02	7.360940209945815438e-02	6.928826511598104587e-02	6.772642097871556244e-02	6.853807256612404197e-02	7.107471806211372589e-02	7.464657784310162192e-02	7.881685686277330183e-02	8.329530282960023735e-02	8.749966764172954770e-02	9.075616846052957098e-02	9.254920319011633589e-02	9.268711552686305366e-02	9.138727867663436200e-02	8.927644405854562315e-02	8.731189066742335581e-02	8.661853683030898421e-02	8.827780008028904279e-02	9.299310307552356714e-02	1.006226977379151288e-01	1.100107618697669931e-01	1.216728539789932173e-01	1.365207472198503025e-01	1.542832808316235982e-01	1.739143217428562593e-01	1.939696697470285058e-01	2.129304366512060065e-01	2.294666663179629196e-01	2.426460556592222872e-01	2.520908495338920474e-01	2.580775264350140263e-01	2.614174328342074860e-01	2.630208163067825899e-01	2.639967291587391185e-01	2.651494130226034196e-01	2.670134307611636282e-01	2.702319228702155240e-01	2.753578463358427042e-01	2.826910210089655928e-01	2.921854833753303460e-01	3.034210018171824563e-01	3.156463376733875115e-01	3.278893048634149432e-01	3.391606744105054028e-01	3.486876751963964849e-01	3.562115472378085679e-01	3.623614719831785291e-01	3.680455503002993400e-01	3.729965661397317001e-01	3.769511391933871858e-01	3.798420132237183000e-01	3.817794222065886700e-01	3.830219844643757976e-01	3.839401650502067831e-01	3.849721538254328168e-01	3.867856640038775939e-01	3.902355428511152802e-01	3.958455761043774834e-01	4.037240362808826033e-01	4.135111809680975248e-01	4.243223160380627523e-01	4.352309138087124274e-01	4.459668105941432814e-01	4.567202025009905464e-01	4.678674498553097583e-01	4.797623425874952274e-01
3.132563656960933307e-01	3.172040409535130112e-01	3.224212594220845496e-01	3.280505803520251673e-01	3.329873320283094906e-01	3.362638506222836443e-01	3.375756305762634968e-01	3.379409631459355801e-01	3.391430975616454013e-01	3.415879358960444145e-01	3.444393955045982891e-01	3.462083696748032291e-01	3.452228565724774212e-01	3.405629211960015668e-01	3.323099531821615549e-01	3.211397077252266530e-01	3.082385186018199996e-01	2.950862191838501403e-01	2.830942097304912086e-01	2.730811594923047703e-01	2.646283406364977053e-01	2.562137266363032628e-01	2.472929909236770418e-01	2.384676692771501849e-01	2.308418667681394476e-01	2.255157219628011467e-01	2.232179603358191433e-01	2.240423178164519247e-01	2.273716323389609884e-01	2.320481856289591527e-01	2.365899649160430329e-01	2.395377539380641185e-01	2.399462821859018324e-01	2.379993819225869056e-01	2.346798311053342467e-01	2.302738065504872922e-01	2.247153596595953817e-01	2.178086932718917290e-01	2.093716968491564079e-01	1.994147879161942694e-01	1.882319891239297438e-01	1.764157045712011762e-01	1.647935172484135125e-01	1.542901241428970560e-01	1.457123167834170341e-01	1.394580969230816148e-01	1.351477261681685027e-01	1.311269102972655864e-01	1.254593845117123185e-01	1.175319532510305243e-01	1.077458873660705196e-01	9.707437546067035350e-02	8.670000274604210133e-02	7.773356504698129832e-02	7.101439231177951450e-02	6.699096116268293821e-02	6.568253748238500611e-02	6.672315667565015262e-02	6.948393151283818736e-02	7.327970269517494750e-02	7.765066072824164389e-02	8.230873271900449040e-02	8.670824087235219635e-02	9.022103895413281782e-02	9.237149503685580798e-02	9.298935451011262898e-02	9.228994194518289063e-02	9.087215604841926420e-02	8.964415217257697133e-02	8.966760250038030566e-02	9.195797596646515526e-02	9.716726142451588555e-02	1.051401985257676835e-01	1.147565764439277824e-01	1.264472186734350023e-01	1.409625357039958338e-01	1.579181906110641020e-01	1.762247020871227643e-01	1.944734377090860389e-01	2.112579880403328281e-01	2.254256038350439528e-01	2.362618346786760359e-01	2.436137739728385931e-01	2.479439336660838877e-01	2.501686854434923557e-01	2.511876196217348589e-01	2.518968394798908883e-01	2.529422097618745369e-01	2.549376670236521147e-01	2.585965501865347127e-01	2.645065558486119905e-01	2.729612925750944386e-01	2.838656078277019823e-01	2.967127478684393194e-01	3.106362274437704518e-01	3.245355156958100173e-01	3.373008302200625752e-01	3.480715919329128716e-01	3.565642392962112273e-01	3.634812033418024502e-01	3.698451014313853258e-01	3.754119608004669040e-01	3.799515824830410060e-01	3.834392521001773746e-01	3.860218284194435467e-01	3.879793423534278474e-01	3.896831634056326932e-01	3.915529892411813706e-01	3.942103298258093913e-01	3.984389186522076520e-01	4.047059751696770458e-01	4.130984028931951046e-01	4.232942065921573849e-01	4.344221662697981823e-01	4.453147073220379282e-01	4.555591769893876375e-01	4.653572949480235255e-01	4.752019675827550138e-01	4.856242952370117827e-01
3.183790200639784462e-01	3.243728018041932559e-01	3.315083486218137754e-01	3.387938925408343072e-01	3.450325405989248528e-01	3.492353907291003146e-01	3.511784007661021834e-01	3.520523286654976269e-01	3.536525302162704110e-01	3.563085086768392196e-01	3.591245639568461656e-01	3.605840744377914464e-01	3.590252596644336602e-01	3.535381008983044526e-01	3.442213575821927440e-01	3.318067082757427122e-01	3.175596751998835399e-01	3.030420044189484075e-01	2.897212157033507429e-01	2.784124040901207464e-01	2.686108208878782433e-01	2.587850681563291233e-01	2.485057608040411314e-01	2.384952604620935168e-01	2.299559194860455180e-01	2.240450638585552989e-01	2.214976739279865825e-01	2.223666872837764263e-01	2.259611474271547016e-01	2.310214056161355722e-01	2.359583752322693961e-01	2.392329868525606418e-01	2.398877217483483537e-01	2.382051825224445474e-01	2.351864758734048544e-01	2.309348399079247660e-01	2.252545210532073960e-01	2.178856042447708530e-01	2.086535414571719926e-01	1.976356141610340067e-01	1.852310009846522276e-01	1.721548279561034289e-01	1.593555475063104521e-01	1.478558423789267939e-01	1.385183402921527362e-01	1.317342214818079116e-01	1.270355690910731361e-01	1.227104220143657165e-01	1.169792142047963307e-01	1.093249051634744978e-01	1.001593576179348744e-01	9.040620065024533580e-02	8.115979742055111357e-02	7.342463269507469581e-02	6.793263566428719979e-02	6.503804575952255862e-02	6.469130345901052959e-02	6.649196608332887115e-02	6.981873070959906946e-02	7.403822054728183277e-02	7.877701745828957769e-02	8.379865670594378868e-02	8.859163346353060575e-02	9.255443374650369759e-02	9.522367384691295122e-02	9.642661464006579974e-02	9.635966351830760335e-02	9.558885385869041185e-02	9.497905815986411315e-02	9.554478642112691766e-02	9.825739655158134689e-02	1.037351839041831814e-01	1.118180498655093197e-01	1.214069673626357870e-01	1.328401354539752444e-01	1.467343675015070625e-01	1.626399446258430526e-01	1.794718532863803784e-01	1.958921171592325206e-01	2.106206011565631975e-01	2.226698198204088430e-01	2.315069102188072603e-01	2.371478255487398379e-01	2.401773638082983775e-01	2.415637881607227977e-01	2.421850257016464614e-01	2.427689737343252108e-01	2.438030765260910948e-01	2.458984156208822991e-01	2.497856997460128903e-01	2.560707145070789115e-01	2.650567667925923243e-01	2.766460234041245303e-01	2.903129223946707693e-01	3.051569581001921661e-01	3.200309605350161735e-01	3.337728199367887005e-01	3.454721579662899389e-01	3.548088754696058778e-01	3.624764788417456085e-01	3.695563529248181434e-01	3.759173306204180998e-01	3.814020593572256534e-01	3.860109314269699055e-01	3.898731088814411661e-01	3.932161754084519956e-01	3.963350036243397101e-01	3.995620498724833936e-01	4.034156187029004914e-01	4.085689807955763531e-01	4.154263491893291360e-01	4.240842385464981268e-01	4.343258314078347615e-01	4.453924846058187059e-01	4.559627253116648737e-01	4.655164509715976617e-01	4.742611130798344288e-01	4.827744647288326751e-01	4.917214730903129438e-01
3.246042103363639963e-01	3.323438210347696709e-01	3.411093290896085595e-01	3.498133454159185751e-01	3.571977359536677166e-01	3.622641073554263569e-01	3.648514565573959811e-01	3.662651669789744879e-01	3.682493567505342735e-01	3.710446096719089981e-01	3.737185136850969536e-01	3.747675562535442428e-01	3.725852809527981369e-01	3.663030449248129150e-01	3.560497595905520729e-01	3.426082430953386604e-01	3.273038748397597009e-01	3.117477642640542057e-01	2.974290071837333294e-01	2.851337126358473584e-01	2.742658587200567100e-01	2.632674806284164837e-01	2.517698459296028313e-01	2.405596303042745465e-01	2.308961119966733699e-01	2.239792242300294167e-01	2.205686181436668225e-01	2.207290218728791831e-01	2.237748402391933344e-01	2.284389491637865977e-01	2.331172677665654946e-01	2.362563425944692874e-01	2.368968678120713378e-01	2.353431746251761492e-01	2.325348671068179773e-01	2.284065850961398136e-01	2.226376954865964819e-01	2.148952515701476329e-01	2.049958133754916090e-01	1.930626040935206067e-01	1.795765733840523071e-01	1.653536226615598959e-01	1.514439386787004294e-01	1.389557891580155413e-01	1.288050227289468941e-01	1.213854784934777081e-01	1.161662985662609004e-01	1.114261068402165322e-01	1.056062410998813983e-01	9.833315244325827043e-02	9.005244068658026235e-02	8.163647545931912441e-02	7.406733731117146058e-02	6.820087603101894491e-02	6.460517363049868289e-02	6.347907842827010816e-02	6.464771548911586729e-02	6.763484265396688122e-02	7.181532125859391158e-02	7.664216586878887238e-02	8.190606705311760660e-02	8.745407462521974373e-02	9.280149035986663686e-02	9.735490763491239097e-02	1.006440994311334075e-01	1.024769299772339964e-01	1.030218231888871544e-01	1.028122086416637382e-01	1.026796140372441823e-01	1.036088659674284512e-01	1.065456054390812313e-01	1.120896900938928437e-01	1.200786239800959859e-01	1.294197002804014229e-01	1.403657292201981321e-01	1.534416189269426356e-01	1.681766193257725750e-01	1.835267767437258335e-01	1.982437971049742231e-01	2.111713133621972993e-01	2.214612997671094874e-01	2.287169532357747337e-01	2.330647878508123327e-01	2.351506029741815273e-01	2.359493961104710824e-01	2.363171478124723446e-01	2.368684920436699148e-01	2.379434803511970009e-01	2.400800100775386525e-01	2.439811115891258597e-01	2.502571472283935394e-01	2.592377510176701039e-01	2.708630112923353650e-01	2.846482516211455427e-01	2.997284687415411875e-01	3.149795942918938163e-01	3.292446074053345662e-01	3.415944631945361798e-01	3.516606471680241985e-01	3.600567689719907927e-01	3.678690190222259626e-01	3.751423583096759606e-01	3.818200679885154214e-01	3.879132085061051671e-01	3.934926865924712192e-01	3.986797312888831768e-01	4.036367077831986561e-01	4.085602849955823346e-01	4.138259079047219013e-01	4.199665593094968341e-01	4.273196482363653681e-01	4.360146364044109046e-01	4.459886427185642543e-01	4.566694606555369296e-01	4.666575458839661850e-01	4.753587126467443413e-01	4.829833845927859470e-01	4.901686244203344867e-01	4.976748215399542374e-01
3.308980516613336809e-01	3.401797938376199815e-01	3.503858842974774124e-01	3.603531344762970767e-01	3.687773814178382237e-01	3.746570171618913703e-01	3.778840198220652091e-01	3.798486712861197101e-01	3.822203363160581180e-01	3.851470941426050065e-01	3.876707286295811294e-01	3.883169965622167985e-01	3.855506097739048177e-01	3.785526592802492818e-01	3.674805194465548541e-01	3.531614681474372075e-01	3.369662053751812936e-01	3.205394795857922641e-01	3.053757261210934826e-01	2.922234920850784734e-01	2.804001462812269474e-01	2.683147931903386296e-01	2.556339412547494749e-01	2.431849773189998787e-01	2.322688061385809744e-01	2.241257451908303111e-01	2.195519069518889199e-01	2.186496141810844729e-01	2.207760532923955243e-01	2.247000602821623561e-01	2.288430750266649272e-01	2.316655704292238105e-01	2.322093739416296043e-01	2.307633648343591637e-01	2.281722997579559986e-01	2.242094340930280705e-01	2.184304756624390609e-01	2.104219489837682866e-01	1.999823904601625568e-01	1.872681283456491264e-01	1.728295261421028961e-01	1.575714483105520869e-01	1.426367060396798725e-01	1.292142701782878766e-01	1.182722077437515507e-01	1.102137946335363244e-01	1.044586570284947585e-01	9.929910544409385753e-02	9.342266251883545036e-02	8.661718560324224714e-02	7.937190607141191012e-02	7.250802127615986470e-02	6.688796278982185595e-02	6.320198970364974966e-02	6.183319668504771299e-02	6.280037014904034376e-02	6.577912842367157620e-02	7.020104079354513860e-02	7.543011518992803754e-02	8.101778781463431223e-02	8.694880287820082321e-02	9.316505761675800135e-02	9.920565283663969336e-02	1.044763101563020991e-01	1.084891494287142794e-01	1.110240514059081807e-01	1.122160516186174739e-01	1.125651912574737040e-01	1.128730966768095867e-01	1.141014928443809251e-01	1.171785855790945102e-01	1.226916355993411256e-01	1.304759675548587405e-01	1.394385695125688052e-01	1.497549266392672607e-01	1.618818844474200491e-01	1.753520273418617548e-01	1.891809428165064089e-01	2.022197391608705486e-01	2.134340302613839668e-01	2.221027403320793014e-01	2.279425911566111407e-01	2.311609742957382863e-01	2.324325225535053274e-01	2.327160187097001842e-01	2.328483081983304948e-01	2.333615565438401374e-01	2.344588183039833795e-01	2.365747745085347298e-01	2.403655330743336149e-01	2.464401922926879873e-01	2.551608156355278378e-01	2.665222379284207244e-01	2.801057095445885214e-01	2.951111950905997983e-01	3.104674330303533458e-01	3.250468679646292269e-01	3.379142437203901395e-01	3.486473999122138290e-01	3.577475001209566297e-01	3.662782651639278075e-01	3.744818915958471051e-01	3.824109247144225066e-01	3.900814702745301066e-01	3.974910437618858761e-01	4.046357113622068846e-01	4.115270565784925894e-01	4.182113153498087099e-01	4.249069778237485329e-01	4.319930250530574778e-01	4.397368147480767986e-01	4.483080784635763427e-01	4.578155300449697207e-01	4.679025218255862262e-01	4.771283133940165122e-01	4.848438308420628950e-01	4.912640473129977758e-01	4.970752608413088192e-01	5.031172767565842419e-01
3.376745643709319067e-01	3.482425330538472807e-01	3.595952704437386238e-01	3.705234501098634836e-01	3.797072174268190659e-01	3.861645572268636029e-01	3.898430876671762357e-01	3.921931439610393255e-01	3.948042595035940461e-01	3.977468070722353088e-01	4.000534061601134228e-01	4.002912330208511782e-01	3.970014745810215295e-01	3.894086899592060225e-01	3.776829049289712192e-01	3.626710446423628831e-01	3.457620179660894078e-01	3.286066974659261897e-01	3.126881093325766248e-01	2.987170970760754107e-01	2.859510306593421314e-01	2.727858509962684530e-01	2.589244188960823645e-01	2.452352246589350193e-01	2.330612136372809673e-01	2.236843080257221450e-01	2.179388469499971837e-01	2.159679515092552404e-01	2.171745536918792685e-01	2.203667186671147415e-01	2.239935646721247509e-01	2.265317793350306586e-01	2.270238657211564315e-01	2.257427063160276082e-01	2.234543378965579141e-01	2.197989417712669091e-01	2.142131652232510397e-01	2.061918672694011134e-01	1.954930910888318385e-01	1.822812505039859143e-01	1.671518879475340225e-01	1.510786714909831685e-01	1.352839385740892963e-01	1.210325467012406397e-01	1.093496631303746691e-01	1.006620140867601071e-01	9.436302938134286111e-02	8.877287224235259899e-02	8.281396087805349693e-02	7.643298720126440182e-02	7.016983180710056889e-02	6.480702951908084986e-02	6.109930603593130560e-02	5.958253185953689413e-02	6.046113456870357700e-02	6.357597448534593743e-02	6.844941463535829385e-02	7.441281556055655277e-02	8.080952449447761921e-02	8.728015862534004021e-02	9.400185946279571159e-02	1.010270633346278951e-01	1.079225929960234698e-01	1.140864985827371586e-01	1.189991243176848207e-01	1.223954117559370031e-01	1.243621881335238988e-01	1.253540323884769214e-01	1.261368287398151322e-01	1.276492441192200733e-01	1.308063207786903659e-01	1.361900017042896316e-01	1.436420625653002381e-01	1.520728259083405920e-01	1.615633653574148065e-01	1.724993908581207158e-01	1.844378742844489938e-01	1.964865916866408435e-01	2.076290280187829407e-01	2.169787347371275044e-01	2.239549675247830274e-01	2.283860769563043625e-01	2.305442045217288294e-01	2.311047022266042583e-01	2.309796483409764789e-01	2.309715627725610343e-01	2.315348283135247875e-01	2.327566644916269634e-01	2.349746819276866960e-01	2.387888036453491014e-01	2.447896466366868695e-01	2.533544429871533166e-01	2.645198719734148107e-01	2.779270738393286311e-01	2.928438578666042735e-01	3.082619471356383700e-01	3.230988126201120858e-01	3.364293105560037800e-01	3.477882701285975875e-01	3.575611070646945722e-01	3.667605551538197783e-01	3.757881249806578339e-01	3.847865453526288504e-01	3.937750712554337618e-01	4.026903911628006427e-01	4.114257472394649007e-01	4.198707747456533190e-01	4.279526000441982170e-01	4.357583118989491466e-01	4.435257371706438634e-01	4.514571349365860686e-01	4.597558757673117502e-01	4.686788671573800524e-01	4.780648799303987562e-01	4.864744213805966555e-01	4.932284917341953068e-01	4.985417127064598608e-01	5.031261114932322753e-01	5.078687679827618151e-01
3.459853191358597813e-01	3.573414454904104143e-01	3.692460283731531234e-01	3.805049208638612845e-01	3.898489393521345492e-01	3.963656132761982365e-01	4.000653492638645559e-01	4.024108070269037940e-01	4.049073515905903808e-01	4.075871944646765055e-01	4.095115161595860309e-01	4.093168631830289561e-01	4.056277081750545022e-01	3.976986859534715757e-01	3.856770911655466594e-01	3.703774086167314072e-01	3.531446105000804470e-01	3.355783971047127112e-01	3.191112543702388504e-01	3.044200816751380101e-01	2.907648860545085090e-01	2.765741904297381315e-01	2.615878835904805744e-01	2.467148182970093084e-01	2.333399804987422721e-01	2.227861997000275818e-01	2.159263903799606976e-01	2.129431425444303083e-01	2.132862888374260357e-01	2.158025787514749050e-01	2.189700511417650708e-01	2.212807148078358987e-01	2.217788381277920884e-01	2.207220260037110748e-01	2.188416191884704487e-01	2.157093440838702414e-01	2.106605931189415581e-01	2.030778991121566512e-01	1.926360086321615706e-01	1.794548975660913426e-01	1.641226112157948835e-01	1.476371179459953775e-01	1.312701403663394384e-01	1.163501090353066952e-01	1.039680744273303592e-01	9.460245809997423760e-02	8.766626086266694762e-02	8.153465396164520651e-02	7.532960133135095659e-02	6.914551451457603970e-02	6.358669712594003376e-02	5.942500493633758735e-02	5.734045386409532263e-02	5.774490663674788221e-02	6.068718178057729007e-02	6.584093616498221113e-02	7.257575698137616604e-02	8.011054780924684038e-02	8.774842418591838333e-02	9.519525449054162813e-02	1.028094625995603778e-01	1.107814843534443844e-01	1.187174152682556189e-01	1.259929884391627342e-01	1.320297043297238015e-01	1.364870101311518313e-01	1.393748003126129287e-01	1.410829692648147837e-01	1.423316774263570228e-01	1.440388438552513140e-01	1.471176365207907955e-01	1.521627043022633907e-01	1.590414961832194163e-01	1.666755804065101210e-01	1.750134359917200344e-01	1.843603312860063737e-01	1.943388380580513275e-01	2.042118183549813115e-01	2.131586414675895047e-01	2.204888085707897016e-01	2.257833738919393096e-01	2.289740132882285006e-01	2.303608735203518665e-01	2.305634050224674159e-01	2.303866340105596155e-01	2.305626640269791972e-01	2.314769216955197273e-01	2.331464717063949088e-01	2.358267831511574042e-01	2.400405629647839600e-01	2.463236380611896759e-01	2.550296812280997694e-01	2.662082737812694888e-01	2.795472604742981204e-01	2.943882232279420030e-01	3.098088405992299732e-01	3.248066982505096734e-01	3.385044793177262035e-01	3.504204495576038747e-01	3.608226640880023428e-01	3.706140150143121259e-01	3.802709515384591898e-01	3.899836588700865136e-01	3.997716317287293708e-01	4.095381157182142462e-01	4.191228814612082409e-01	4.283556416563254476e-01	4.371108520532767105e-01	4.454015890430304547e-01	4.533638743341392718e-01	4.611517968486769647e-01	4.689888593507746117e-01	4.772269039334219864e-01	4.858507429133588906e-01	4.935077802891713050e-01	4.995368996138541684e-01	5.041354563180980852e-01	5.079844286608773407e-01	5.119429964838674296e-01
3.557644109456366555e-01	3.673016235211146729e-01	3.790281713408226172e-01	3.898413550453728726e-01	3.986040734701385424e-01	4.045345872720512714e-01	4.077163565164668713e-01	4.095658703580446480e-01	4.115100790642186035e-01	4.135973107966093854e-01	4.149675531152104413e-01	4.143564388802947751e-01	4.104769570017753333e-01	4.025915009561021329e-01	3.907785290890855023e-01	3.757497893611355111e-01	3.587269000105047234e-01	3.411839734880531827e-01	3.244570573499996335e-01	3.091964296222100006e-01	2.947487175329557840e-01	2.796350030576960632e-01	2.636320068206455258e-01	2.476868300256602484e-01	2.332239057349127787e-01	2.216048349519725846e-01	2.137385794070379708e-01	2.098462390773996045e-01	2.094222588942342145e-01	2.113515714116966648e-01	2.141396105240538084e-01	2.162942074639167822e-01	2.168612433642764237e-01	2.160860313196998894e-01	2.147188292619990058e-01	2.123451809794303924e-01	2.082231756364170405e-01	2.016016617477642547e-01	1.920206990551435733e-01	1.794929280698244478e-01	1.645341906215252170e-01	1.481131421652149560e-01	1.315128817706828213e-01	1.161101136730666866e-01	1.030702930114100191e-01	9.295705582442068127e-02	8.525911522523429986e-02	7.843406731115838693e-02	7.175111617893907556e-02	6.543242971112944728e-02	6.016194674334662124e-02	5.673854758781995272e-02	5.581265193131756258e-02	5.771644369240667288e-02	6.237800272076107766e-02	6.932627382572918717e-02	7.778290662890205431e-02	8.684366869481491280e-02	9.574681666158867122e-02	1.042299509504574784e-01	1.128112453475290655e-01	1.218486442615783760e-01	1.309986309018656148e-01	1.395988860658413655e-01	1.469801164757731649e-01	1.526901841199436449e-01	1.566294033112037298e-01	1.591000348267879450e-01	1.607670131474393527e-01	1.625311272590010125e-01	1.653195150751173292e-01	1.697616740570069560e-01	1.757744165641259571e-01	1.823001023009653554e-01	1.891155390676794723e-01	1.964403666445675711e-01	2.040129482423369001e-01	2.113256147756243930e-01	2.178247336448129734e-01	2.230655985870523550e-01	2.268087372957413306e-01	2.290711490791387528e-01	2.301300752197596444e-01	2.304769700781663100e-01	2.307369069366331238e-01	2.315297503150320624e-01	2.331889699770422208e-01	2.357231091647629673e-01	2.393230395983630132e-01	2.444094505692806785e-01	2.514175461629292174e-01	2.606315853249766556e-01	2.720786361847275514e-01	2.854786460356087407e-01	3.002541614524557589e-01	3.155984344944732789e-01	3.306327752765547690e-01	3.445748015330760694e-01	3.569598001230052664e-01	3.679371034312013955e-01	3.782284410631803206e-01	3.882828562847968068e-01	3.982862190966742211e-01	4.082545589747412218e-01	4.180907837160575125e-01	4.276407662590755443e-01	4.367494478493913479e-01	4.453174479156450927e-01	4.533551948796339937e-01	4.609468843537058991e-01	4.682212915464183389e-01	4.754063434008467537e-01	4.828833256836446153e-01	4.907218184160044294e-01	4.977588509731667998e-01	5.034084484818528438e-01	5.078278089123013928e-01	5.115955738023878485e-01	5.154492802499012205e-01
3.662246955489272815e-01	3.773441501239424012e-01	3.881753574540441343e-01	3.977802390451444792e-01	4.052316133956292421e-01	4.099379481660579416e-01	4.120657820924056303e-01	4.129325179767684983e-01	4.139021868520376124e-01	4.151003111745170671e-01	4.157948527838110642e-01	4.148484489874732506e-01	4.110599025111465465e-01	4.036722755666327100e-01	3.926428519434350117e-01	3.785086354306556600e-01	3.622848334351112531e-01	3.452456966687022510e-01	3.285862329140606386e-01	3.129414862015743037e-01	2.978353124451064149e-01	2.819440321748958311e-01	2.650791274211482529e-01	2.482222864418311969e-01	2.328334011126265146e-01	2.203088338430946314e-01	2.115896489032612904e-01	2.069318602343027669e-01	2.058721495102237842e-01	2.073306247768840760e-01	2.098391996202615961e-01	2.119201982729574663e-01	2.126219863822464418e-01	2.121802005133791025e-01	2.114177379499967424e-01	2.100141181434488913e-01	2.071771079469150734e-01	2.020021698091413465e-01	1.938488874824503827e-01	1.825618698541677243e-01	1.685249525871857501e-01	1.526242573154779625e-01	1.361186917855419509e-01	1.204173460941473928e-01	1.067680784374235858e-01	9.585046885399817196e-02	8.728111756067771787e-02	7.962144719905885071e-02	7.222583275906183098e-02	6.541730468557599432e-02	5.997399541716084276e-02	5.675872881788118079e-02	5.644336985569330806e-02	5.933015751384680680e-02	6.527015169921161764e-02	7.367652757309593736e-02	8.363533258274849502e-02	9.411279084617761581e-02	1.042584574827685878e-01	1.138040921257896521e-01	1.233952761973506340e-01	1.335811309421844895e-01	1.440798601349221886e-01	1.541745724347063085e-01	1.630758679127595479e-01	1.701853055364131728e-01	1.752649603719971805e-01	1.785083630058438287e-01	1.805174197142285497e-01	1.821804533236044965e-01	1.844541543912046333e-01	1.880251424127946380e-01	1.928824550139459637e-01	1.979997480615340033e-01	2.029533246941976898e-01	2.078805523990600590e-01	2.126869542513744327e-01	2.171616298588054939e-01	2.210797306786516092e-01	2.242809837456101463e-01	2.267126258221235924e-01	2.284494320705462711e-01	2.296897059599138924e-01	2.307231767261163080e-01	2.319251585839314789e-01	2.337662272563421628e-01	2.365540266348648835e-01	2.403546360818599459e-01	2.453113728423410023e-01	2.517181723912926827e-01	2.598676843585877583e-01	2.699298146508756213e-01	2.818765362035139943e-01	2.954456455836015349e-01	3.101492190561374040e-01	3.253244143629334673e-01	3.402594072646326073e-01	3.543120379947615750e-01	3.670677849596222786e-01	3.785564514336301478e-01	3.892510104781120583e-01	3.994755168552500124e-01	4.093623799205914349e-01	4.189203063711228192e-01	4.280838870095209359e-01	4.367614617835935964e-01	4.448840254885012557e-01	4.524535777223629429e-01	4.595452968362543911e-01	4.662416621662087701e-01	4.726687873303719867e-01	4.790441844712626795e-01	4.857155902399561409e-01	4.927780645502963797e-01	4.993557956853140190e-01	5.049914361898273363e-01	5.097789365276341744e-01	5.141255065807482927e-01	5.185561946051387983e-01
3.762526964607876279e-01	3.864548095183921728e-01	3.957984901998987670e-01	4.035680676276070522e-01	4.091070742839259533e-01	4.120615867503032437e-01	4.126896676025003652e-01	4.121707528209044291e-01	4.118314422692594401e-01	4.119314003812203917e-01	4.119080808173267161e-01	4.107687239752577102e-01	4.073880519272202738e-01	4.009612672940718880e-01	3.912766524090416920e-01	3.786319784884650819e-01	3.637651244807038053e-01	3.476881049737796658e-01	3.314190150775146448e-01	3.155924847365826347e-01	2.999919144315845165e-01	2.835031738580278682e-01	2.659695424701564170e-01	2.484015201740380485e-01	2.322892488964615754e-01	2.190584911326813322e-01	2.096771395481932532e-01	2.044310222555815459e-01	2.028944373468700157e-01	2.040201620513544811e-01	2.063635602828161886e-01	2.084610787761021211e-01	2.093631536070570676e-01	2.092994062010861134e-01	2.092088303996450238e-01	2.089303904479579144e-01	2.076452209495988077e-01	2.042848717925247470e-01	1.979937111277035866e-01	1.884032462576458733e-01	1.757182752589016572e-01	1.607022414241758845e-01	1.445605918548904245e-01	1.287222491741169539e-01	1.145221603418342948e-01	1.027793869003330585e-01	9.327725305126685629e-02	8.469177420908538534e-02	7.639933728850571704e-02	6.879415188925516733e-02	6.275713088290484076e-02	5.924882236202336921e-02	5.900782447647578977e-02	6.235647026363311946e-02	6.911230048151630057e-02	7.860597826442293490e-02	8.980573277697648238e-02	1.015480703387787731e-01	1.128745350798161101e-01	1.234747806544384957e-01	1.340846591704075996e-01	1.454578502151720187e-01	1.573806855603080979e-01	1.690694317131249125e-01	1.795911099720121640e-01	1.881765016382538347e-01	1.944269075512234934e-01	1.984130273980902470e-01	2.006686612521690338e-01	2.020747437790159640e-01	2.036308996862102039e-01	2.060989377175856951e-01	2.095580572144410403e-01	2.130232136451268021e-01	2.158579790612110139e-01	2.181316365408412783e-01	2.199587134749157735e-01	2.214753786813854486e-01	2.228256904007521466e-01	2.241534235517134155e-01	2.255861383281659860e-01	2.272238255330481793e-01	2.291326299106751785e-01	2.313374619858417636e-01	2.339087381239127461e-01	2.371433359878407088e-01	2.413542825834241179e-01	2.467259332293324503e-01	2.533672796442872910e-01	2.614271311575090406e-01	2.710220637944809607e-01	2.821738061581955392e-01	2.947743908472237329e-01	3.085691551474559202e-01	3.231669842050273744e-01	3.380721629353184987e-01	3.527735897003370646e-01	3.668058648485252871e-01	3.798309309823725832e-01	3.917594109696100335e-01	4.027634881883139784e-01	4.129667672241132403e-01	4.224104496055506863e-01	4.310931023781160443e-01	4.390054195102368606e-01	4.461619048988955116e-01	4.526339665357719810e-01	4.585819427681237515e-01	4.641985632533363049e-01	4.696049535112507001e-01	4.749432130479716019e-01	4.804086513838526362e-01	4.862660599875077150e-01	4.925890044551263780e-01	4.988642759427968643e-01	5.048034528537261867e-01	5.104185188148562258e-01	5.158901649885706542e-01	5.214595242383982532e-01
3.847179269910221966e-01	3.936662211976143522e-01	4.011337230969601042e-01	4.066600892420095814e-01	4.098962562728536985e-01	4.107528579542160663e-01	4.095855939144220081e-01	4.074172449700572685e-01	4.055674696006600910e-01	4.044756018517913221e-01	4.037753611154336064e-01	4.026229714703660756e-01	3.999538294428890972e-01	3.948881663456412783e-01	3.870109702202630952e-01	3.763348379900540719e-01	3.632717304554812232e-01	3.485306713288359171e-01	3.329335880614294196e-01	3.171284376197306965e-01	3.012190901359988460e-01	2.843383193612095683e-01	2.663571049044747840e-01	2.483083290944032573e-01	2.317056931555118438e-01	2.179971458597312894e-01	2.081712623642724969e-01	2.025381056929811685e-01	2.007041418596632876e-01	2.016501315702871333e-01	2.039517507326047974e-01	2.061582173566424425e-01	2.073231712340320998e-01	2.076732698082260076e-01	2.082905190499043102e-01	2.092139083981377490e-01	2.096179470850763060e-01	2.082682673912730764e-01	2.040781340513143638e-01	1.964421537513332539e-01	1.853606969890738143e-01	1.714521898814014844e-01	1.558518593102378169e-01	1.400004184445109989e-01	1.253206875915074958e-01	1.127823029355190104e-01	1.023555374810773688e-01	9.282890719293038218e-02	8.354575930461496935e-02	7.494380420981330837e-02	6.800869667175338251e-02	6.382150551976256692e-02	6.322260681340992339e-02	6.659404910882216200e-02	7.375877807228715943e-02	8.399672044114513125e-02	9.617829397557592364e-02	1.090163459245901967e-01	1.214339047280306866e-01	1.330494884733793015e-01	1.446530419390369970e-01	1.572019748837399922e-01	1.705531226203692574e-01	1.838478457299698998e-01	1.959974910764528677e-01	2.060490730800262071e-01	2.134327226222871299e-01	2.180898356777122848e-01	2.204856702369572818e-01	2.214987636272339466e-01	2.221804794763864443e-01	2.233790832665347725e-01	2.252749638110879971e-01	2.269311105212205859e-01	2.275064499298451726e-01	2.270232554895778854e-01	2.258332603234837477e-01	2.244432835515129121e-01	2.233789525026250722e-01	2.230857362291437107e-01	2.238523614436510045e-01	2.257710820844290311e-01	2.287334730763648238e-01	2.324571715504807623e-01	2.366751793971871021e-01	2.415021329773067993e-01	2.472886539206725076e-01	2.543830972826823800e-01	2.628679750903469836e-01	2.727367273541971282e-01	2.839113098141365366e-01	2.962476206416933544e-01	3.095443052099392522e-01	3.235497301686723892e-01	3.379746130586942510e-01	3.525046410290945120e-01	3.668498233161640587e-01	3.807431291193355549e-01	3.939386895974258951e-01	4.062291785716309334e-01	4.174578319082246636e-01	4.275066351787172314e-01	4.363042130824061338e-01	4.438382847087735117e-01	4.501687671709359018e-01	4.554403398379660572e-01	4.598940441833815895e-01	4.638793140648353464e-01	4.677358196347241037e-01	4.716476410626572746e-01	4.757843709667506360e-01	4.803126597771521511e-01	4.853857873142444213e-01	4.910284516114690190e-01	4.971312168976610990e-01	5.035960783467605673e-01	5.103412301930816408e-01	5.172884390115490838e-01	5.243537245756819676e-01
3.907082761786078162e-01	3.982635642493214667e-01	4.037123329109659209e-01	4.068539794290935152e-01	4.076512905744066328e-01	4.062846551603143674e-01	4.032086303308631825e-01	3.992957491704119399e-01	3.958886192246484637e-01	3.936322552720739054e-01	3.923636492022747890e-01	3.913805007473157294e-01	3.896592554041454770e-01	3.862261688223097011e-01	3.804469815548787714e-01	3.720297086885208104e-01	3.610429685848424719e-01	3.478802952300377171e-01	3.331642555981119691e-01	3.175691555833356494e-01	3.015485716004325800e-01	2.844973282753853194e-01	2.663068697691711728e-01	2.480263585171547103e-01	2.311844682115115068e-01	2.172446867354397571e-01	2.072090361348629117e-01	2.014042954200812308e-01	1.994634756785666208e-01	2.003899815666475293e-01	2.027767716221393623e-01	2.051839172595720240e-01	2.066684363382443879e-01	2.074575529452173384e-01	2.087835425773828246e-01	2.108971886195297740e-01	2.129780347143309938e-01	2.136361912657554207e-01	2.115575245694489293e-01	2.059023341793758399e-01	1.964664540445495156e-01	1.837211572954710881e-01	1.687296634877960277e-01	1.529409892987175223e-01	1.378638233362144971e-01	1.246153906506419912e-01	1.133504285351260160e-01	1.029555258866773765e-01	9.270315589978428417e-02	8.305234348540739553e-02	7.508816756610442456e-02	7.002049942224146395e-02	6.881023585014629795e-02	7.192341942393266907e-02	7.921490220385134229e-02	8.993850173327562481e-02	1.028874414777019158e-01	1.166619809599029889e-01	1.300661098739392396e-01	1.426301242562257876e-01	1.551689883798831049e-01	1.688307657839666909e-01	1.835387416414619166e-01	1.983578014402337109e-01	2.120433560818948127e-01	2.234598081867796848e-01	2.318688865147974509e-01	2.370863447172034399e-01	2.395127344433445882e-01	2.400281839813338813e-01	2.397397405905559720e-01	2.395850250914148827e-01	2.398479259318345158e-01	2.396429317094199152e-01	2.379493211391628671e-01	2.347678352165515625e-01	2.306962175667364445e-01	2.266063583515204038e-01	2.233892828514901230e-01	2.217680501052431419e-01	2.221642865455705773e-01	2.246340245077719511e-01	2.288696636883006952e-01	2.342651787477263436e-01	2.402113842188011439e-01	2.466490004624683485e-01	2.539940310634026255e-01	2.627816491159705725e-01	2.730695215043428825e-01	2.846948471609629383e-01	2.973853974198537031e-01	3.108305208195759062e-01	3.247365652069491571e-01	3.388566047325202168e-01	3.530060552407777719e-01	3.670553514912098247e-01	3.809391660139367919e-01	3.945931084804318312e-01	4.078667568065884041e-01	4.204370587535322668e-01	4.318180956328777076e-01	4.416484959317168446e-01	4.497440405437860833e-01	4.560815243236127636e-01	4.607911608827610084e-01	4.641479903112660788e-01	4.665631452381668320e-01	4.685742287871516587e-01	4.706697504065667781e-01	4.731025666340192837e-01	4.760721714349726574e-01	4.797161311666625072e-01	4.840719859681607562e-01	4.891121991394862811e-01	4.951318694095704354e-01	5.022227916808872372e-01	5.102059361993077635e-01	5.187391500008063927e-01	5.274078852707968501e-01
3.936842557201582493e-01	3.999133253218644657e-01	4.034542812321970651e-01	4.043429636594018661e-01	4.028281291476677461e-01	3.993398492989528870e-01	3.944316913309194317e-01	3.888518209528242786e-01	3.839921981892685521e-01	3.807056107742487483e-01	3.790192249100017285e-01	3.783522200006886882e-01	3.777008740695603217e-01	3.759909942895400814e-01	3.723764291950478755e-01	3.662722282300974186e-01	3.574200454971229735e-01	3.459155456930508854e-01	3.321982154213365956e-01	3.169760540769789858e-01	3.010445203165706962e-01	2.840484593614100994e-01	2.658930237890063109e-01	2.476356141610340234e-01	2.308128153862046561e-01	2.168947189251555219e-01	2.068888824959866368e-01	2.011322411059837112e-01	1.992773332531314612e-01	2.003446936659269706e-01	2.029408585348078387e-01	2.056345514863279766e-01	2.074877594083543442e-01	2.087301037262919712e-01	2.107313363940805928e-01	2.139351393572779536e-01	2.175317571051660070e-01	2.199950440478229685e-01	2.198091631502071819e-01	2.159272621393585889e-01	2.079657014982492780e-01	1.962690441288965915e-01	1.818403581885014164e-01	1.661399714324445220e-01	1.507553795182744738e-01	1.369350944616689603e-01	1.249942136969964812e-01	1.138914424174585494e-01	1.028145188040681529e-01	9.223009566251752500e-02	8.331086373485263596e-02	7.738904573293389766e-02	7.554313879586489755e-02	7.832771266461541204e-02	8.563902797083616791e-02	9.671935144587834321e-02	1.103005782815965896e-01	1.248856360639888780e-01	1.391684112751616909e-01	1.525916317200118055e-01	1.659777370084966064e-01	1.806418197803079106e-01	1.965632629256855723e-01	2.127349446062284655e-01	2.277688930965809100e-01	2.403625908863657179e-01	2.496248383431166618e-01	2.552588013918510312e-01	2.576084109090227559e-01	2.575592000910116863e-01	2.562719601640825462e-01	2.547679572628672728e-01	2.534281066562752982e-01	2.514176333388690177e-01	2.475745474152115932e-01	2.419021397770300952e-01	2.352319599199899358e-01	2.287674281049127678e-01	2.237218154738164766e-01	2.210542535102481831e-01	2.212863158619673698e-01	2.244186345545374772e-01	2.299415136619953337e-01	2.369384071473809583e-01	2.444811745737423547e-01	2.523600270419765201e-01	2.610740032194074356e-01	2.713416725837335952e-01	2.831906917018530701e-01	2.963115206055589312e-01	3.102548545011770686e-01	3.245623876792500528e-01	3.388627942242453117e-01	3.529222900596327150e-01	3.666606624238136769e-01	3.801254113069809093e-01	3.934635371376041801e-01	4.067986771922896261e-01	4.200669097131867757e-01	4.328322787224017087e-01	4.443075255501782728e-01	4.539269219352535800e-01	4.614132974255637509e-01	4.667342389169958916e-01	4.700778230511492017e-01	4.718268312068942261e-01	4.725331061528342258e-01	4.728904212602938473e-01	4.735098008640007405e-01	4.746993683231403027e-01	4.766822477313551465e-01	4.795721328596192490e-01	4.833121550284607548e-01	4.878419258298386518e-01	4.938224663620739419e-01	5.015121565758337008e-01	5.106397982519916834e-01	5.206223198847010902e-01	5.307452131691461350e-01
3.935582973841551535e-01	3.987108966873578741e-01	4.006813671453933190e-01	3.996921272716415507e-01	3.962241921078750173e-01	3.909176727859817735e-01	3.844210275340846916e-01	3.774043451103669122e-01	3.713253924769779335e-01	3.672205498971106152e-01	3.652759053112377141e-01	3.650027939888702555e-01	3.653994118239342614e-01	3.652983640127259179e-01	3.636713667574604236e-01	3.596845168120979541e-01	3.528011699882879215e-01	3.428666107868892365e-01	3.301679749595830549e-01	3.154477290885625007e-01	2.997986671670565539e-01	2.830774501560667233e-01	2.651961611203154101e-01	2.472116121838836833e-01	2.306601703156335725e-01	2.170109680408645880e-01	2.072690349754229278e-01	2.017740085807277484e-01	2.001910242780633453e-01	2.015523419598284627e-01	2.044739781999127259e-01	2.075318704338877385e-01	2.097922989646549552e-01	2.114904426837810603e-01	2.141032581571616633e-01	2.182211880249898539e-01	2.230434558983458715e-01	2.269354693182100424e-01	2.282238643263413969e-01	2.257036732889869390e-01	2.188593159042477032e-01	2.079464792035257414e-01	1.939325763846481421e-01	1.782982254029816804e-01	1.626989627370804270e-01	1.484870397709713574e-01	1.360928877073643295e-01	1.245158357274025740e-01	1.128706557504954855e-01	1.016292311387226310e-01	9.203564972881744799e-02	8.552029434084310044e-02	8.325772999955104170e-02	8.587309536917049624e-02	9.329521129486345599e-02	1.047551423997182540e-01	1.189329141914148291e-01	1.342504678078868807e-01	1.493119421012278347e-01	1.634881229320232499e-01	1.776092957448116016e-01	1.931241938949817549e-01	2.100553959509391111e-01	2.273326211059052415e-01	2.434475076616754163e-01	2.569592334793966426e-01	2.668503027838328712e-01	2.727323903511926217e-01	2.749052506504414684e-01	2.742617832448715487e-01	2.720098325742488221e-01	2.692417567521034338e-01	2.664202420788672199e-01	2.627575231746339113e-01	2.569939077094477997e-01	2.491549600276521947e-01	2.402738457796601834e-01	2.318274997373824808e-01	2.252884542877703899e-01	2.217984309202597204e-01	2.219469351336908480e-01	2.256725514784821418e-01	2.322831029927064361e-01	2.405918418140267079e-01	2.494010577056774702e-01	2.583845818889369816e-01	2.681286725588884479e-01	2.795052198773347318e-01	2.924995564924063318e-01	3.066742335382403595e-01	3.214357790107361668e-01	3.362127001396122417e-01	3.505831416552357416e-01	3.643397228938402010e-01	3.775043359133052889e-01	3.902847100811564496e-01	4.030124190843824006e-01	4.159695642641413338e-01	4.291580090061463126e-01	4.420327456803231914e-01	4.535578680426516907e-01	4.630366768793280352e-01	4.701368111956572560e-01	4.748197610202374852e-01	4.773078767602456640e-01	4.780484826809739962e-01	4.776793361639360969e-01	4.769909758736227690e-01	4.766670219086213134e-01	4.770397044997168878e-01	4.783421402826505409e-01	4.806744072363003939e-01	4.839280312490873981e-01	4.880505405780026229e-01	4.939947192084773175e-01	5.021430515763370961e-01	5.121451292241646636e-01	5.232235321042832954e-01	5.344266272260921324e-01
3.906872667771185692e-01	3.951470244018531752e-01	3.960463204997273778e-01	3.937268193727603838e-01	3.888301904227640660e-01	3.821525461258794554e-01	3.744309808470101530e-01	3.663145412518726274e-01	3.593314106679812991e-01	3.546574290682069086e-01	3.525912176342977933e-01	3.527023560605367369e-01	3.539773913558953433e-01	3.551762348798780944e-01	3.551406670964440404e-01	3.528556658476487140e-01	3.475816958422743297e-01	3.389819964249147222e-01	3.272344827916874310e-01	3.131096050014580134e-01	2.979209845999343798e-01	2.816789955239513699e-01	2.642939119374809187e-01	2.468150706277670303e-01	2.307709055531509401e-01	2.176209816795403873e-01	2.083606738874497488e-01	2.033253044292787359e-01	2.021856533684129320e-01	2.039800611190513979e-01	2.073302324851550305e-01	2.108174662225924256e-01	2.135132296026825693e-01	2.156596973861601985e-01	2.187977043088015772e-01	2.235999870979609172e-01	2.292680141451679809e-01	2.340928537087478001e-01	2.362986229252671266e-01	2.345863567038951603e-01	2.283706468149616642e-01	2.178697600177141591e-01	2.040490172874247499e-01	1.884203981237994319e-01	1.726953623707671304e-01	1.582934394438872405e-01	1.457040350691370667e-01	1.339323192156257614e-01	1.220551204749693863e-01	1.105587934152525709e-01	1.007392519694134542e-01	9.408999433792271383e-02	9.184116020714747086e-02	9.465206120971436654e-02	1.024572282148416141e-01	1.144632294065367067e-01	1.293001820669502366e-01	1.453250376709029901e-01	1.610780351066227190e-01	1.758904695339705004e-01	1.906167087508515989e-01	2.068035154569479450e-01	2.244990543589931442e-01	2.425836376863331201e-01	2.594590907287951942e-01	2.735828788197772754e-01	2.838462111810988731e-01	2.897952716642017701e-01	2.917005454162672762e-01	2.904640854742654432e-01	2.873306552884630216e-01	2.834451146821281853e-01	2.793319359030185245e-01	2.742422122463888390e-01	2.668625292093882995e-01	2.572509895558865445e-01	2.465950167617538269e-01	2.365715707927474876e-01	2.288378662642625294e-01	2.246613323709109600e-01	2.246717716897007333e-01	2.287525210192087877e-01	2.360679771825695272e-01	2.452243058724764280e-01	2.548209602342592084e-01	2.644551656321061928e-01	2.747893502384916031e-01	2.867963975414641320e-01	3.004031233395707545e-01	3.150683176046144007e-01	3.300975585942182433e-01	3.448522934464179901e-01	3.588951604712905530e-01	3.720624432539116899e-01	3.844744772821680479e-01	3.964751280505585673e-01	4.085431658204062288e-01	4.210787172583515536e-01	4.341213166530890066e-01	4.470210292340155434e-01	4.585624589455808420e-01	4.680158559958085829e-01	4.750432092994061883e-01	4.796044506150480280e-01	4.819241914758494172e-01	4.824577055031119555e-01	4.818558836785282740e-01	4.809283997853728287e-01	4.803644531823794694e-01	4.804779780499701114e-01	4.814930056564108440e-01	4.835096194290760541e-01	4.864261204614571121e-01	4.902524767774193437e-01	4.961350982974103152e-01	5.045247220885524797e-01	5.150099465874379279e-01	5.266823063026896401e-01	5.384372693923967779e-01
